"X","Y","Z","Intensity","ReturnNumber","NumberOfReturns","Classification","R","G","B","NIR"
460797.41,5262500.82,43.44,31279,1,3,0,42405,36237,31097,42291
460797.37,5262501.03,34.58,27908,2,2,0,21588,20046,20560,29874
460797.58,5262500.06,43.37,31099,1,2,0,43947,38036,33667,37230
460797.8,5262499.02,48.76,28812,1,3,0,44975,38293,34181,38704
460797.56,5262500.14,39,29251,3,3,0,39321,34952,32382,37003
460797.64,5262499.77,38.89,30640,3,3,0,37008,34181,31611,36352
460797.86,5262498.7,48.45,28553,1,3,0,40092,36494,35723,35231
460797.73,5262499.35,42.83,28648,2,3,0,45489,40092,36494,34022
460797.94,5262498.37,48.36,29389,1,5,0,28527,25700,24929,34836
460797.61,5262499.89,34.81,29032,3,5,0,27499,23644,22102,34302
460796.94,5262503.1,6.5,28969,5,5,0,19275,19532,20817,19743
460796.96,5262502.98,7.64,28173,4,5,0,17990,18247,19532,15032
460798.02,5262497.98,48.03,30463,1,3,0,27242,24415,22873,34407
460797.69,5262499.52,34.33,27600,2,3,0,35980,31611,27499,37122
460797.02,5262502.71,6.11,27547,3,3,0,14135,13878,17219,16442
460797.79,5262499.06,34.7,28773,3,4,0,40606,36237,31097,38982
460797.93,5262498.41,40.77,28284,2,4,0,25957,22359,20303,33836
460798.17,5262497.3,47.23,30765,2,3,0,26728,22102,20046,25525
460798.2,5262497.15,48.63,29136,1,3,0,22359,18504,19789,26625
460798.01,5262498.05,40.52,27898,3,3,0,22616,19275,18761,36814
460798.25,5262496.91,47.15,27819,2,2,0,43176,38807,34181,35787
460798.28,5262496.74,48.3,30601,1,2,0,35980,32125,30840,23579
460798.34,5262496.49,47.41,28229,1,3,0,35466,31868,30326,29684
460798.24,5262496.96,43.4,28979,2,3,0,42148,35980,32125,36738
460798.16,5262497.36,39.68,30037,3,3,0,25700,22359,20817,35627
460797.32,5262501.3,0.72,27983,4,4,0,27756,25443,23644,36173
460798.13,5262497.51,34.69,29287,2,4,0,26214,22359,20303,35779
460798.02,5262498.02,30.2,28347,3,4,0,41377,37265,33667,35569
460798.37,5262496.35,41.52,29821,2,3,0,50115,46003,43690,31221
460798.21,5262497.11,34.9,27740,3,3,0,44718,39835,36237,38679
460798.62,5262495.17,44.27,29723,3,3,0,41120,35209,31354,34849
460798.69,5262494.87,47.14,27629,2,3,0,40863,35466,30069,37076
460798.73,5262494.66,49.1,30008,1,3,0,41634,37008,32896,15100
460798.8,5262494.33,44.55,28081,2,2,0,37265,32125,29812,38302
460798.93,5262493.74,49.76,30673,1,2,0,37522,33410,28013,35655
460798.81,5262494.3,41.29,27547,2,2,0,37008,31354,28013,33564
460799.08,5262493.01,49.4,31204,1,1,0,38293,31868,26728,37482
460798.99,5262493.47,34.87,29077,2,2,0,41377,37265,31354,39618
460799.2,5262492.46,43.71,30434,1,2,0,43947,39578,34952,34263
460799.07,5262493.1,34.88,28052,4,4,0,34438,29041,26985,33224
460799.27,5262492.14,43.42,29343,1,4,0,30583,27499,24415,29164
460799.19,5262492.51,39.87,29900,2,4,0,25700,23130,23644,30166
460799.14,5262492.76,37.42,27580,3,4,0,25700,22873,20303,31216
460799.27,5262492.15,40.03,29402,1,2,0,25957,24672,24415,26294
460799.21,5262492.43,37.22,29389,2,2,0,23644,22616,22359,27146
460799.27,5262492.17,35.94,30463,1,1,0,24158,20817,18504,24146
460799.32,5262491.93,34.62,28261,4,4,0,36751,33153,31097,26077
460799.48,5262491.19,41.93,28409,3,4,0,22359,21331,22102,25673
460799.57,5262490.75,46.24,30113,1,4,0,17733,14906,16962,30199
460799.62,5262490.5,45.17,29841,2,2,0,28270,25700,25700,36088
460799.5,5262491.12,35.72,27642,3,3,0,27756,26985,25700,25018
460799.62,5262490.54,41.25,29277,2,3,0,21331,19532,21331,28272
460799.7,5262490.16,41.53,30637,1,1,0,15934,15677,17990,19182
460799.78,5262489.76,41.5,31174,1,1,0,17219,16448,19275,21265
460799.74,5262489.99,35.47,27891,2,2,0,12336,13878,17219,20512
460799.93,5262489.06,41.25,29992,1,3,0,19018,19532,22873,19512
460799.81,5262489.63,35.41,28717,2,3,0,23644,22616,24415,25057
460799.09,5262493.08,2.2,28517,3,3,0,16191,16705,19789,27605
460800.02,5262488.65,41.74,30221,1,2,0,23387,23130,25700,22630
460799.15,5262492.8,1.46,29900,2,2,0,14135,14135,16705,23419
460800.09,5262488.32,41.37,29890,1,3,0,13878,13621,17733,20627
460800.05,5262488.54,39.26,29274,2,3,0,11822,12336,18247,18840
460800.12,5262488.2,38.67,29264,1,2,0,10023,11822,16705,18758
460800.17,5262487.98,37.22,28979,1,2,0,12850,12850,17476,13843
460799.38,5262491.73,0,31578,2,2,2,12850,13364,16191,17854
460800.29,5262487.42,38.63,28199,1,4,0,21588,20817,24415,19132
460800.1,5262488.32,29.97,29723,3,4,0,17219,16962,18504,26230
460800.25,5262487.59,37.02,29090,2,4,0,19275,18504,20817,17536
460800.36,5262487.06,38.81,30132,1,2,0,19018,18761,20560,21757
460800.4,5262486.9,36.79,27488,2,3,0,21331,20817,22359,22943
460800.44,5262486.7,38.85,29975,1,3,0,15420,15163,17990,23053
460800.48,5262486.51,36.72,27580,2,3,0,21074,21074,20817,29759
460799.71,5262490.18,0,30493,3,3,2,29555,27242,26985,31200
460799.8,5262489.77,0,30693,4,4,2,26214,24158,23644,35292
460800.57,5262486.12,36.8,28032,2,4,0,18504,18247,19275,32332
460800.46,5262486.64,31.53,29176,3,4,0,29812,27499,28013,24428
460800.54,5262486.25,31.54,30228,2,3,0,33153,31611,32382,27781
460800.61,5262485.92,34.75,27695,1,3,0,15677,15677,17219,23870
460799.89,5262489.35,0.55,30768,3,3,0,20817,18247,18504,30724
460800.75,5262485.27,37.01,27973,1,3,0,17476,16448,16191,24658
460800.82,5262484.93,37.01,30457,1,4,0,24672,23644,21074,27093
460800.69,5262485.57,30.73,27347,3,4,0,31354,29041,29298,24016
460800.04,5262488.62,0,27724,4,4,2,22102,20560,20560,24392
460800.77,5262485.18,34.38,28425,2,4,0,18504,18504,20817,31481
460800.91,5262484.5,37.29,30283,1,4,0,29298,26728,23901,30099
460800.9,5262484.58,36.51,29995,2,4,0,29298,25957,21845,34003
460800.14,5262488.16,0.55,27868,4,4,0,16448,16962,20046,15494
460800.83,5262484.89,33.44,27845,3,4,0,20303,18247,18504,32128
460800.85,5262484.8,30.47,28638,2,4,0,27242,26214,25443,36879
460800.99,5262484.16,37.05,30526,1,4,0,32639,28270,25957,30904
460800.77,5262485.21,26.36,27885,3,4,0,27499,24929,26214,33880
460801.04,5262483.9,36.06,30185,2,3,0,31097,28527,27756,33209
460800.87,5262484.7,27.77,28196,3,3,0,35209,31868,28013,37982
460801.17,5262483.29,38.78,30499,1,2,0,32382,29041,26214,21917
460801.11,5262483.59,35.6,29166,2,2,0,24672,21845,21845,33995
460801.25,5262482.92,38.48,29251,1,3,0,30326,27499,24929,30469
460800.46,5262486.66,0.13,27524,3,3,0,14906,12593,13107,24108
460801.33,5262482.56,38.32,29933,1,2,0,31097,29812,29812,27111
460801.41,5262482.19,37.98,30814,1,1,0,32382,29555,29298,37888
460801.46,5262481.98,36.06,28877,2,4,0,25186,24415,24415,29660
460801.48,5262481.85,37.41,28147,1,4,0,19532,17476,17733,29113
460800.8,5262485.09,0,29071,3,3,2,42405,39064,36751,41106
460801.49,5262481.81,34.11,30165,2,3,0,17476,16705,18761,26424
460800.89,5262484.68,0,27852,3,3,2,19789,18761,17990,27621
460801.45,5262482.03,23.96,29710,2,3,0,16962,17476,18504,27313
460801.64,5262481.1,33.93,29372,1,3,0,24672,22102,21845,23145
460801.73,5262480.72,34.15,30270,1,2,0,34952,31611,30840,19553
460801.81,5262480.33,34.33,30257,1,2,0,24158,20303,20817,25014
460801.13,5262483.55,0,28992,2,2,2,25700,24929,24415,36134
460801.23,5262483.11,0.92,30549,2,2,0,17219,17219,17733,27669
460801.84,5262480.2,31.88,30041,1,2,0,33667,30583,26985,38570
460801.31,5262482.7,1.08,31712,2,2,0,18247,17990,19532,29930
460801.39,5262482.34,0.56,32190,1,1,0,20046,18761,19789,30813
460801.57,5262481.51,0.79,32305,1,1,0,21331,20817,22359,30193
460801.65,5262481.14,0.74,31987,1,1,0,15677,15677,19018,23593
460801.72,5262480.8,0.15,31751,1,1,0,13878,14392,18247,22479
460801.81,5262480.39,0.71,31666,1,1,0,13878,14135,17476,21275
460801.88,5262480.05,0,31191,2,2,2,12850,13621,17476,21399
460802.51,5262477.06,28.49,29772,2,4,0,12593,12850,13878,29300
460801.96,5262479.66,0,27898,4,4,2,13878,14392,17733,22040
460802.6,5262476.65,32.93,28003,1,4,0,12336,12593,15677,12379
460802.04,5262479.3,0,30224,3,3,2,10794,11565,15934,17565
460802.68,5262476.27,32.98,29634,1,3,0,23901,23644,23644,17584
460802.66,5262476.37,27.83,28533,3,4,0,21588,20303,21845,33881
460802.12,5262478.95,0,28347,4,4,2,11565,12593,17219,17351
460802.22,5262478.49,0.3,28379,4,4,0,10023,11565,16448,16149
460802.84,5262475.54,32.71,29982,2,4,0,30840,28527,26985,37465
460802.87,5262475.37,34.68,28642,1,4,0,29298,26471,25700,22203
460802.89,5262475.3,31.19,28317,3,4,0,27756,25443,24158,35526
460802.97,5262474.94,31.37,27626,2,4,0,34181,33667,33153,31866
460803.02,5262474.67,34.5,30424,1,4,0,20303,18761,19275,13912
460802.46,5262477.34,0,30896,3,3,2,11051,11822,16191,20453
460803.05,5262474.57,31.15,28848,1,3,0,23901,22873,23130,31075
460802.99,5262474.85,27.91,29133,2,3,0,21588,21074,22359,28612
460803.12,5262474.23,31.14,28176,1,2,0,21845,20303,20303,34060
460802.8,5262475.79,0.11,31659,1,1,0,10280,12079,16962,16069
460802.9,5262475.32,0.99,31384,2,2,0,10023,11565,16962,16868
460802.98,5262474.92,0.93,30231,2,3,0,9766,11308,16962,16239
460802.97,5262475,0,27688,3,3,2,10023,11308,16962,15077
460803.5,5262472.45,29.5,30123,1,3,0,25700,25186,26985,26908
460803.57,5262472.15,28.78,29235,1,2,0,15420,16191,19018,25707
460803.06,5262474.56,0.74,31201,2,2,0,9252,10794,16448,11202
460803.66,5262471.73,29.3,29569,1,2,0,33410,32896,34181,30380
460803.15,5262474.15,0.86,30935,2,2,0,11051,12336,17990,13725
460803.24,5262473.73,0.75,31994,1,1,0,10794,11308,15420,14011
460803.31,5262473.39,0.7,32472,1,1,0,25186,24415,27499,14027
460803.47,5262472.65,0.85,32341,1,1,0,20046,19275,21588,11596
460803.54,5262472.32,0.75,31918,1,1,0,17476,16962,20303,12293
460803.61,5262472.01,0.09,32354,1,1,0,11308,11822,16191,11410
460803.69,5262471.64,0,32043,1,1,2,11308,12593,17733,11447
460803.76,5262471.29,0,31836,1,1,2,10023,11308,16962,11403
460803.85,5262470.88,0.6,31551,1,1,0,11565,13107,18761,11831
460803.94,5262470.46,1.26,31869,1,1,0,15934,16448,20560,13671
460804,5262470.17,0.49,32197,1,1,0,9766,10537,14392,13968
460804.09,5262469.78,0.42,32380,1,1,0,21588,20046,22616,12164
460804.16,5262469.42,0,31515,1,1,2,29555,28527,31354,11748
460796.83,5262504.98,32.75,28248,1,5,0,21074,20046,22359,27032
460796.95,5262504.38,34.15,31224,1,2,0,21331,19018,21074,27118
460797.04,5262503.99,34.26,28602,1,3,0,25443,22359,21331,31023
460796.9,5262504.67,25.12,28071,3,4,0,15420,13621,14392,23729
460796.98,5262504.3,28,29140,2,4,0,23901,21845,20560,31933
460797.44,5262502.1,43,28655,1,4,0,26728,23901,22873,32529
460797.53,5262501.68,43.61,30925,1,3,0,38550,34181,30583,33224
460797.69,5262500.93,42.96,30119,1,4,0,38293,32382,28527,40954
460797.63,5262501.21,40.25,28661,2,4,0,44718,39064,33410,38395
460797.51,5262501.81,35.46,29294,3,4,0,33667,28784,25186,40259
460797.53,5262501.71,32.98,28497,3,4,0,30583,27756,26985,32236
460797.6,5262501.36,32.08,30195,2,2,0,32125,28270,25957,34264
460798.08,5262499.11,48.91,28271,1,5,0,41377,35980,31097,39653
460797.93,5262499.8,43.05,28537,2,5,0,40349,35466,31097,35982
460798.16,5262498.72,48.96,29136,1,4,0,36494,33667,32639,39365
460797.76,5262500.64,31.82,30627,3,4,0,32639,28013,24415,38063
460797.92,5262499.86,38.85,29546,2,4,0,28270,24929,23130,34894
460796.99,5262504.29,0.1,28769,4,4,0,33924,31354,28527,33852
460798.22,5262498.44,48.44,28019,1,4,0,23901,23387,24158,29189
460797.83,5262500.32,31.69,29297,4,4,0,33410,28784,25186,37331
460798.29,5262498.15,46.82,29110,1,2,0,12593,10537,13107,25056
460798.37,5262497.73,46.98,31270,1,1,0,26985,23901,21845,38401
460798.46,5262497.34,47.24,30903,2,2,0,36751,31097,27499,34225
460798.49,5262497.18,48.75,29906,1,2,0,22873,19275,17733,22922
460798.54,5262496.94,46.51,29015,2,3,0,37779,32896,29041,40735
460798.37,5262497.79,39.24,27265,3,3,0,41377,36751,32639,37918
460798.45,5262497.38,39.25,31145,1,1,0,30326,25700,23130,33733
460798.54,5262497,39.4,29533,2,3,0,37522,32382,30069,36793
460798.61,5262496.65,41.99,29471,1,3,0,33924,29812,28013,35640
460798.67,5262496.36,41.44,28566,2,2,0,38550,34438,31354,33924
460799.03,5262494.69,49.35,30650,1,2,0,42919,37522,33153,22744
460798.81,5262495.71,40.55,29241,2,2,0,39578,35209,30840,35772
460799.12,5262494.28,49.73,31102,1,1,0,38807,32896,29041,33758
460799.39,5262492.98,47.85,29684,2,3,0,28013,25957,23644,37191
460799.42,5262492.86,49.04,30496,1,3,0,40606,37522,33924,36348
460799.31,5262493.37,40.71,28638,2,2,0,37008,32639,30069,36228
460799.4,5262492.97,44.65,30663,1,2,0,36494,30840,26471,36172
460799.45,5262492.72,43.54,27655,2,2,0,33153,28270,24415,38768
460799.56,5262492.23,43.65,30578,1,2,0,33153,29041,25700,35207
460799.42,5262492.88,38.28,28743,2,2,0,43433,39321,33924,33426
460799.63,5262491.87,43.53,29310,1,3,0,24158,21845,20303,28952
460799.49,5262492.56,36.98,28193,3,3,0,24415,20560,19532,35053
460799.6,5262492.05,41.73,29379,2,3,0,25443,23901,24158,28644
460799.64,5262491.83,40.41,29438,2,3,0,20046,19532,20303,25677
460799.6,5262492.04,38.42,29107,3,3,0,17476,17219,19789,23727
460799.67,5262491.69,41.83,29120,1,3,0,22873,21588,22616,30124
460799.72,5262491.45,40.66,29330,3,4,0,19018,17990,21074,25014
460799.64,5262491.87,36.44,27472,4,4,0,42919,38036,34181,27323
460799.85,5262490.86,46.35,27393,1,4,0,24672,22102,23644,28097
460799.81,5262491.05,41.17,28707,3,4,0,15934,15420,16448,26366
460799.89,5262490.66,45.01,30191,2,4,0,26214,24672,24415,31547
460799.8,5262491.11,40.6,28864,4,4,0,20303,19789,20560,24549
460799.73,5262491.43,33.77,29464,3,3,0,20560,20560,23644,21544
460799.79,5262491.17,36.25,29992,2,3,0,22102,21331,23387,24752
460800,5262490.17,38.66,27767,2,2,0,24929,24672,25957,18797
460800.06,5262489.87,41.65,30572,1,2,0,15677,15420,18247,20375
460800.09,5262489.76,39.16,29723,2,2,0,13621,13364,17476,12768
460800.13,5262489.55,41.26,30132,1,2,0,11308,11822,16191,20308
460800.2,5262489.22,40.87,30244,1,2,0,12593,13364,18247,20169
460799.39,5262493.05,3.87,27999,2,2,0,16962,17219,20303,27877
460800.05,5262489.96,29.84,28147,3,3,0,19532,19532,22102,20005
460800.28,5262488.86,40.6,29857,1,3,0,12593,13364,17219,20504
460800.37,5262488.43,40.84,29002,1,2,0,12593,13107,18504,20208
460800.42,5262488.24,38.89,30653,1,4,0,11308,12079,16962,17513
460800.22,5262489.15,29.81,28573,2,4,0,14392,13878,17219,19797
460799.59,5262492.13,0.11,28900,4,4,0,14135,14392,17219,19837
460800.09,5262489.8,23.47,27583,3,4,0,16448,16448,19018,19926
460800.31,5262488.76,29.91,28514,2,3,0,18504,18504,21588,21010
460800.49,5262487.87,38.46,29703,1,3,0,13107,13364,18761,13287
460799.75,5262491.4,0,31853,2,2,2,9766,11565,16191,14214
460800.7,5262486.92,37.19,28461,1,2,0,19532,19275,21074,24670
460799.91,5262490.63,0,30575,2,2,2,21331,19532,21331,22615
460800,5262490.25,0,29002,2,2,2,23387,22102,23387,19323
460800.82,5262486.34,38.94,31001,1,2,0,25957,25186,25957,24083
460800.89,5262486,38.6,28563,1,4,0,31611,31354,30326,29766
460800.74,5262486.72,31.48,28265,3,4,0,35209,33924,33667,29376
460800.89,5262486.01,34.81,29182,1,2,0,19789,19018,20303,19996
460800.17,5262489.46,0.37,30998,2,2,0,31868,30326,30583,36081
460800.25,5262489.05,0.11,29736,4,4,0,28527,26471,25957,30351
460800.98,5262485.61,34.44,29061,2,4,0,16191,14649,15677,24377
460801.03,5262485.39,29.29,27685,2,2,0,13364,14392,17476,22439
460801.19,5262484.61,37.16,30477,1,2,0,24929,22616,19532,34458
460801.13,5262484.9,30.41,29104,2,2,0,20046,20046,22102,31127
460801.35,5262483.87,36.95,29094,2,2,0,30069,28527,27242,34749
460801.47,5262483.34,38.65,30955,1,1,0,30069,25957,22873,32658
460801.54,5262483,38.46,30644,1,2,0,24672,22359,20303,32680
460801.48,5262483.27,35.64,29094,2,2,0,31097,27499,24929,39301
460801.62,5262482.64,38.13,30798,1,2,0,22102,20817,21331,28398
460801.57,5262482.87,35.7,28176,2,2,0,28013,25957,23901,30191
460801.74,5262482.06,36.28,30817,1,1,0,21845,19789,20303,30736
460801.81,5262481.72,35.73,30575,1,1,0,20817,20303,21588,27603
460801.89,5262481.38,35.67,29887,1,2,0,18247,17733,20560,26660
460801.26,5262484.38,0,28547,4,4,2,19532,19275,20817,28585
460801.91,5262481.3,32.35,28471,2,4,0,39578,34438,28270,40361
460801.73,5262482.11,23.76,29179,3,4,0,17733,17476,18761,27290
460801.93,5262481.17,33.78,29575,1,4,0,36237,32382,27756,29629
460801.35,5262483.97,0,30152,3,3,2,19532,19532,20046,27231
460801.82,5262481.69,24.01,28383,2,3,0,14392,14392,16448,26618
460802.06,5262480.58,31.96,27708,2,3,0,28527,25957,23387,38402
460802.1,5262480.39,33.92,29910,1,3,0,29555,25700,24158,29256
460801.44,5262483.51,0.62,29621,3,3,0,23130,21845,20817,36334
460801.53,5262483.12,0.83,31020,2,2,0,15163,14649,15420,26322
460802.15,5262480.17,32.25,30175,1,2,0,33924,32639,30840,36067
460802.22,5262479.81,32.26,28353,1,2,0,20817,20046,19532,30905
460801.6,5262482.76,0.63,31207,2,2,0,14906,14649,15934,26588
460801.7,5262482.31,1.19,32118,1,1,0,22616,21074,21588,34207
460801.78,5262481.96,0.67,31771,1,1,0,30583,27499,27242,35434
460801.94,5262481.21,0.45,31781,1,1,0,13107,13621,17219,23233
460802.01,5262480.85,0,31414,1,1,2,11308,12336,16705,23293
460802.1,5262480.45,0.57,31037,2,2,0,13878,14649,18504,23808
460802.78,5262477.22,35.82,28720,1,2,0,14135,11308,13364,10513
460802.18,5262480.07,0.35,30539,3,3,0,14135,15163,19532,22153
460802.86,5262476.87,35.43,29320,1,3,0,24415,24158,25700,13718
460802.72,5262477.51,28.54,27970,2,3,0,11308,11565,16962,23331
460802.98,5262476.29,33.19,30473,1,3,0,21074,21331,22359,25634
460802.34,5262479.35,0,29464,3,3,2,14649,15163,19275,19926
460802.93,5262476.53,30.83,28828,2,3,0,20303,20303,21331,32354
460803.08,5262475.83,34.7,30303,1,2,0,26471,25957,22873,23691
460803.14,5262475.57,33.02,28281,2,3,0,28270,25443,23901,40487
460802.59,5262478.15,0.46,27819,2,2,0,11308,12079,17219,16382
460803.19,5262475.32,31.55,29186,1,2,0,27242,26214,25443,35901
460803.33,5262474.68,34.53,30578,1,3,0,27499,24929,23387,25330
460803.27,5262474.96,31.3,28973,2,3,0,19789,19275,19789,32989
460803.35,5262474.58,31.2,28481,2,5,0,20303,19018,19789,28471
460802.76,5262477.37,0,30644,5,5,2,13878,15420,19789,21703
460803.32,5262474.69,29.94,27046,3,5,0,16962,16191,17476,26951
460803.41,5262474.3,34.35,28088,1,5,0,28013,25700,25186,26890
460803.29,5262474.87,27.88,28101,4,5,0,22873,22873,24158,28003
460803.48,5262473.95,34.13,29893,1,3,0,31354,29555,30069,20413
460803.56,5262473.6,33.82,30244,1,2,0,30583,28013,26728,17961
460803.7,5262472.95,32.8,29077,1,2,0,15163,14135,16705,13643
460803.68,5262473.04,27.8,28714,2,3,0,18761,17733,20303,24539
460803.17,5262475.46,0,31391,3,3,2,10023,11308,16448,14458
460803.25,5262475.09,0,31984,1,1,2,9766,11051,15934,14469
460803.34,5262474.68,0.73,31538,1,1,0,10280,11565,16705,12180
460803.43,5262474.24,1.13,31997,1,1,0,12593,13878,18761,13164
460803.5,5262473.93,0.52,31850,1,1,0,11051,13107,17990,13749
460803.57,5262473.58,0.46,31673,1,1,0,9509,10794,14135,15236
460803.82,5262472.43,0.73,31669,1,1,0,15420,15163,19018,18381
460803.89,5262472.11,0,32053,1,1,2,11308,11822,16448,11933
460803.97,5262471.72,0.36,32233,1,1,0,11051,11822,17219,10615
460804.29,5262470.27,0.53,32062,1,1,0,11308,12850,17219,13704
460797.12,5262504.85,34.45,28068,1,3,0,13878,13621,16962,26267
460797.17,5262504.62,32.65,29883,2,4,0,30840,26985,25443,28522
460797.21,5262504.43,34.34,29703,1,4,0,16191,13878,16191,26155
460797.19,5262504.52,30.15,28166,3,3,0,32639,28784,26728,37227
460797.34,5262503.8,36.03,28655,1,3,0,24158,22359,22873,32453
460797.29,5262504.06,34.37,30132,2,3,0,40606,35466,33410,31637
460797.36,5262503.7,33.63,29346,2,3,0,34438,29555,24415,37443
460797.25,5262504.23,29.5,28330,3,3,0,24929,22359,21074,35006
460797.51,5262503.03,36.41,29399,2,4,0,31611,28270,26214,34726
460797.7,5262502.13,43.44,28130,1,4,0,28784,26214,24672,30060
460797.58,5262502.69,35.76,28163,2,2,0,26728,23130,20303,37711
460797.71,5262502.11,33.31,28661,3,3,0,29555,24929,23901,34845
460797.93,5262501.06,42.56,29385,1,3,0,35209,30069,25700,40313
460797.83,5262501.53,34.47,28619,2,2,0,26985,24158,22616,37699
460798.02,5262500.63,42.64,30604,1,2,0,40606,35209,30326,35656
460798.02,5262500.61,39.2,28026,2,3,0,40349,35723,32382,36666
460798.12,5262500.16,43.34,30342,1,3,0,40092,34695,29812,38783
460798.19,5262499.81,43.21,29133,1,3,0,40349,35466,31097,38530
460797.15,5262504.76,0.27,30657,3,3,0,23130,21331,21331,30891
460798.11,5262500.2,39.62,29313,2,3,0,33924,29555,27242,36667
460798.28,5262499.42,39.15,28383,2,4,0,28270,25443,24415,34008
460798.18,5262499.89,35.26,27623,3,4,0,38036,33410,28784,38181
460798.55,5262498.14,47.15,29611,1,2,0,15934,11822,13364,19152
460798.4,5262498.87,40.92,30257,2,2,0,26985,23130,21331,36433
460798.48,5262498.47,41.28,27983,2,2,0,31097,27242,25186,36425
460798.63,5262497.78,47.12,31112,1,2,0,42405,37779,34438,28918
460798.7,5262497.45,46.88,30608,2,2,0,37008,32639,28013,36877
460798.69,5262497.53,39.34,27390,3,4,0,41891,36237,31868,40386
460798.84,5262496.77,46.11,30005,2,4,0,35466,30326,27756,33350
460798.89,5262496.54,48.31,27947,1,4,0,35209,30326,26471,36396
460797.76,5262501.9,0,28009,4,4,2,36751,34181,29812,39728
460798.66,5262497.65,34.62,28628,2,3,0,37008,32382,29812,33600
460798.83,5262496.86,38.68,30096,2,2,0,34438,28527,24158,39553
460798.9,5262496.54,41.48,31148,1,2,0,38550,32896,30069,35875
460799.14,5262495.39,47.54,29985,1,2,0,35723,30583,26728,39733
460799.25,5262494.88,48.88,30627,1,2,0,39578,34181,29041,42382
460799.04,5262495.88,40.28,28393,2,2,0,39578,34181,29812,38521
460799.21,5262495.09,43.61,28871,2,2,0,30326,25443,21588,36291
460799.43,5262494.03,49.57,30968,1,1,0,41120,35723,32382,40675
460799.67,5262492.94,49.5,30064,1,3,0,40349,35980,32382,39662
460799.36,5262494.39,32.62,28422,4,4,0,26214,23644,22873,32117
460799.58,5262493.33,42.28,29448,3,4,0,36494,31868,28013,39156
460799.69,5262492.83,47.13,28235,1,4,0,33410,28527,26728,30116
460799.52,5262493.66,35.71,28268,3,3,0,29555,23644,20560,34378
460799.66,5262492.97,42.2,29343,2,3,0,30583,26471,24415,37381
460799.74,5262492.59,41.53,28127,2,2,0,27242,24158,25186,32218
460799.79,5262492.36,43.77,31086,1,2,0,33924,29555,26471,34387
460799.82,5262492.22,41.23,30260,2,3,0,28784,26471,27242,29080
460799.86,5262492.04,43,30149,1,3,0,26471,24415,23901,31574
460799.72,5262492.71,36.57,28006,3,3,0,33924,28527,27242,32380
460799.9,5262491.88,41.25,28252,2,2,0,25186,24415,23901,27911
460799.91,5262491.8,42.05,30132,1,2,0,25957,24415,23644,26807
460799.95,5262491.64,39.93,28910,2,2,0,20817,21074,24929,24908
460799.99,5262491.44,42.01,29733,1,2,0,16448,15420,17476,25801
460799.96,5262491.57,36.92,27688,2,3,0,37265,34181,32896,24461
460799.44,5262494.04,13.73,27865,3,3,0,13107,13364,16448,20783
460800.07,5262491.07,41.77,30749,1,3,0,21074,20560,21845,23417
460800.15,5262490.7,41.85,30791,1,1,0,21331,19275,19789,28216
460800.12,5262490.83,36.63,27767,2,2,0,40863,39835,41377,26898
460800.24,5262490.3,41.79,31138,1,2,0,24929,21588,23901,22754
460800.25,5262490.23,38.76,30149,1,2,0,22102,19789,23130,24426
460800.22,5262490.37,37.29,29487,2,2,0,21588,19532,20817,24030
460800.34,5262489.83,39.12,30375,1,1,0,16705,16191,19532,18615
460800.43,5262489.39,39.36,28891,1,2,0,13878,14135,18761,17751
460800.41,5262489.51,38.13,29910,2,2,0,16191,16705,18761,21042
460799.69,5262492.88,2.25,28396,2,2,0,12593,12850,16705,23283
460800.5,5262489.07,39.2,29851,1,2,0,24672,23644,24929,18822
460800.58,5262488.7,39.19,30889,1,2,0,11308,11308,14906,18110
460799.75,5262492.62,0.48,28976,2,2,0,20046,20560,23901,19475
460800.65,5262488.37,38.84,30368,1,2,0,18247,17990,21331,18936
460799.83,5262492.27,0.24,31538,2,2,0,8738,9509,13878,11446
460800.41,5262489.52,23.7,28320,3,4,0,19275,19018,22616,21171
460800.76,5262487.87,39.77,29530,1,4,0,11565,12336,17219,15213
460799.91,5262491.89,0,29362,4,4,2,8481,9766,15420,11587
460800.45,5262489.32,25.68,29225,2,4,0,22359,22359,25443,19883
460800.84,5262487.51,39.48,28733,1,2,0,12079,11822,15934,14535
460800.93,5262487.08,39.93,27652,1,2,0,17219,16448,19275,21462
460800.99,5262486.78,39.43,30300,1,2,0,18504,18247,19532,21787
460801.06,5262486.45,38.9,30319,1,2,0,24929,24672,25700,26248
460800.41,5262489.57,0,30758,2,2,2,24415,23130,24672,25244
460801.17,5262485.95,36.23,28894,1,2,0,15163,14906,17476,21669
460801.14,5262486.09,31.18,28366,3,4,0,26728,25443,26728,32182
460800.48,5262489.21,0,28511,4,4,2,25443,23901,25186,22477
460801.22,5262485.74,34.62,29081,2,4,0,29812,28527,29555,24862
460801.28,5262485.43,33.62,28461,2,2,0,15677,13878,14649,24067
460801.36,5262485.07,37.55,30195,1,2,0,23130,22873,24158,30201
460801.43,5262484.73,37.09,30106,1,3,0,18504,17990,19018,34941
460801.52,5262484.31,37.52,30903,1,1,0,25700,23901,22873,35882
460801.55,5262484.17,34.79,28212,3,5,0,36494,32639,28013,39518
460801.6,5262483.95,36.94,28334,2,5,0,24158,22359,20560,30405
460801.46,5262484.59,30.41,27341,5,5,0,25957,23901,23387,33555
460801.5,5262484.44,32.02,27911,4,5,0,24415,22616,21588,35497
460801.72,5262483.39,35.05,29897,2,3,0,26214,23130,20817,36764
460801.64,5262483.78,30.94,28619,3,3,0,41634,37008,33667,34743
460801.86,5262482.72,38,29123,1,3,0,17990,16705,14392,31280
460801.4,5262484.93,15.3,28186,3,3,0,29812,26985,24672,36033
460801.81,5262482.97,31.43,27623,3,3,0,37779,33924,29041,34549
460801.95,5262482.34,38.13,30591,1,3,0,25186,23387,21331,33751
460801.78,5262483.15,25.69,28399,2,2,0,31097,26985,21845,39671
460801.99,5262482.13,36.09,29985,1,2,0,19789,17990,18761,27971
460801.43,5262484.78,0.23,28543,3,3,0,26985,25186,25443,32752
460802.08,5262481.7,32.53,28291,2,3,0,28270,24929,20046,40759
460801.51,5262484.44,0,28766,3,3,2,16962,16705,18247,26106
460802.16,5262481.32,32.82,30608,1,3,0,40606,34952,28784,42583
460802.07,5262481.76,24.19,29290,2,2,0,16448,16191,17990,26377
460802.23,5262481.03,32.14,30794,1,2,0,30326,28013,25700,36681
460801.68,5262483.65,0,30981,3,3,2,14906,14392,15677,27345
460802.34,5262480.51,33.77,27829,1,3,0,37265,33924,30069,37693
460802.48,5262479.87,32.54,30955,1,2,0,22616,22616,22359,29495
460801.94,5262482.42,0.88,31515,2,2,0,20817,20303,21331,30484
460802.4,5262480.26,24.18,28524,1,2,0,22873,22616,23901,24900
460802.02,5262482.05,0.61,31738,2,2,0,21331,19018,19018,34055
460802.48,5262479.88,24.54,28501,1,2,0,21845,21845,23901,23377
460802.11,5262481.63,0.83,32099,1,1,0,20303,20046,21845,28689
460802.18,5262481.32,0.39,31348,1,1,0,10794,11308,15420,24544
460802.95,5262477.66,35.94,29549,1,2,0,32382,30326,29041,20215
460802.36,5262480.47,1.19,28098,1,1,0,12593,13364,17476,23960
460803.11,5262476.89,35.82,30621,1,2,0,23130,22102,22359,25524
460802.43,5262480.12,0.64,29828,2,2,0,11308,12850,16962,23170
460802.53,5262479.69,0.85,31270,4,4,0,14135,14906,18761,22040
460803.19,5262476.53,35.37,28868,1,4,0,17990,17733,21331,20808
460803.1,5262476.96,30.75,29143,2,4,0,13364,13364,15163,32892
460803.19,5262476.55,30.84,28261,3,4,0,20303,20303,21074,30400
460803.21,5262476.45,31.81,28432,2,4,0,21588,21845,22359,34630
460802.6,5262479.34,0.33,28422,4,4,0,11051,11565,15677,19064
460803.24,5262476.33,33.11,29241,1,4,0,25443,24672,25957,30622
460803.35,5262475.78,34.83,30332,1,2,0,24415,24158,21845,31254
460803.3,5262476.03,31.97,29877,2,2,0,23130,21845,23130,29421
460802.76,5262478.58,0.12,27632,3,3,0,12850,13621,18247,15788
460803.38,5262475.68,32.03,28569,2,3,0,29812,27756,25700,37798
460803.43,5262475.44,34.75,30821,1,3,0,26728,24158,22359,41215
460803.52,5262475.01,31.68,28701,2,3,0,22873,22359,23130,31261
460803.56,5262474.82,29.8,28121,2,3,0,20303,20046,21588,27606
460803.72,5262474.07,34.29,30817,1,4,0,24415,23387,23130,24375
460803.09,5262477.06,0.64,29356,4,4,0,15163,16191,19275,26672
460803.57,5262474.76,26.39,27855,3,4,0,9766,10537,13364,26930
460803.17,5262476.68,0.38,29674,3,3,0,9766,11308,15420,15711
460803.69,5262474.21,28.39,29107,2,3,0,25700,26985,28013,24715
460803.76,5262473.88,28.16,29684,2,3,0,23387,22873,25186,23636
460803.87,5262473.38,33.95,29382,1,3,0,28527,25186,25443,27379
460803.32,5262475.98,0,29687,3,3,2,9766,11565,16448,13666
460803.93,5262473.08,33.09,30988,1,3,0,25700,23901,23901,18347
460803.83,5262473.55,27.97,29412,2,3,0,24672,23387,23644,26241
460803.92,5262473.17,28.01,28868,2,2,0,23387,21845,21845,25923
460804.08,5262472.4,33.01,29700,1,3,0,23130,21588,22873,21794
460803.98,5262472.85,27.68,28969,2,3,0,17990,17990,19789,26270
460803.48,5262475.24,0.25,30703,3,3,0,9766,11051,15934,12992
460803.58,5262474.79,0.65,32033,2,2,0,13107,14649,18761,12611
460803.74,5262474.05,0.62,32085,1,1,0,11051,13364,17990,14342
460803.81,5262473.71,0.45,31912,1,1,0,9766,11308,16191,11346
460803.88,5262473.36,0.35,31525,1,1,0,10537,11565,14906,11874
460803.98,5262472.91,0.73,32223,1,1,0,22102,21588,24929,15729
460804.06,5262472.54,0.83,31971,1,1,0,16191,14906,18504,16620
460804.13,5262472.2,0.28,31912,1,1,0,11822,12079,17219,12508
460804.21,5262471.83,0.69,32062,1,1,0,10537,11308,16705,10593
460804.28,5262471.53,0,31738,1,1,2,10023,11308,16448,12215
460804.36,5262471.15,0,32121,1,1,2,9509,10794,15934,11692
460804.45,5262470.73,0.28,32302,1,1,0,13621,14392,19275,12009
460804.53,5262470.34,0.21,31761,1,1,0,13878,14649,17990,11687
460797.54,5262504.35,32.44,28609,3,5,0,36751,33153,30840,33866
460797.65,5262503.86,36.87,29451,1,5,0,16962,14906,15934,29180
460797.73,5262503.45,36.33,30840,1,1,0,32382,29298,27499,31093
460797.68,5262503.73,30.24,28219,3,3,0,27756,25186,23644,31976
460797.81,5262503.08,36.17,30113,2,3,0,39578,35209,32382,37145
460797.96,5262502.4,41.34,28334,1,3,0,37779,34438,30583,30920
460797.9,5262502.7,35.07,29104,3,4,0,30583,26728,25186,34691
460798.12,5262501.62,40.99,30653,2,3,0,39064,33410,28784,41544
460797.97,5262502.34,35.1,28137,3,3,0,35980,32125,28013,40351
460798.26,5262500.98,43.78,28288,1,4,0,36751,31354,26985,41622
460798.05,5262501.98,35.08,28920,3,4,0,33924,29041,27242,37451
460798.34,5262500.62,43.69,29556,1,3,0,43947,38550,33667,36996
460798.35,5262500.58,40.76,27829,2,3,0,34695,29812,25957,35709
460798.44,5262500.14,37.9,28497,3,3,0,19532,18247,20046,29016
460798.47,5262500.01,39.15,28501,2,3,0,24672,23130,24158,27387
460797.61,5262504.08,0.51,29189,4,4,0,25700,22873,22359,33616
460798.64,5262499.23,42.68,28809,1,4,0,41377,38293,34952,37828
460798.51,5262499.83,37.2,29461,3,4,0,25700,22102,20303,31999
460798.74,5262498.77,40.43,28674,1,1,0,30583,26214,24672,35340
460798.84,5262498.32,40.56,28373,2,2,0,34181,29812,27499,37182
460798.98,5262497.61,47.21,31171,1,2,0,32896,28784,22616,40242
460799.06,5262497.26,46.75,30539,1,1,0,30583,27756,24672,37790
460799.14,5262496.89,46.58,30319,1,2,0,32639,28527,25186,36110
460798.86,5262498.19,34.65,29831,2,2,0,28270,24415,23901,35757
460798.94,5262497.83,34.58,30804,3,3,0,37265,32639,30583,35825
460799.01,5262497.52,37.32,29746,2,3,0,29298,24415,22616,36816
460799.19,5262496.65,45.07,28619,1,3,0,39578,34181,30840,41609
460799.19,5262496.64,41.92,27688,1,3,0,26471,21331,20046,35115
460799.07,5262497.21,37,31483,3,3,0,34695,30583,29298,33278
460799.12,5262496.99,38.96,28039,2,3,0,36751,31868,29041,35584
460799.44,5262495.51,47.93,28327,1,3,0,40349,34695,31354,21430
460799.27,5262496.31,41.26,31079,2,3,0,39064,33924,30069,39144
460799.15,5262496.88,36.57,28953,3,3,0,33153,28527,25700,34822
460799.59,5262494.78,47.41,27963,2,3,0,38550,32896,29041,35823
460799.47,5262495.37,38.55,30601,2,2,0,41377,36494,32639,40080
460799.8,5262493.81,49.27,31256,1,1,0,42919,38036,34438,37676
460799.94,5262493.15,48.58,29785,1,1,0,36237,32125,30583,34736
460800.02,5262492.78,47.79,30506,1,2,0,28270,23387,21845,30723
460799.96,5262493.08,41.91,28406,2,3,0,28013,23387,22616,33223
460800.01,5262492.83,43.61,30617,1,3,0,36494,31868,28013,37310
460799.89,5262493.4,38.77,27681,3,3,0,36237,31611,27499,35815
460800.1,5262492.44,43.63,29854,2,2,0,29555,25700,23901,35029
460800.2,5262491.96,48.16,29621,1,2,0,34695,30326,26214,30860
460800.27,5262491.63,47.9,29805,1,2,0,43433,39835,37008,24548
460800.35,5262491.25,48.08,28651,1,1,0,38550,36237,35209,29321
460800.27,5262491.63,37.15,28527,2,2,0,25443,22102,20817,32120
460800.37,5262491.17,41.81,30142,1,2,0,19275,20046,21074,21260
460800.44,5262490.83,41.72,30126,1,2,0,20817,19018,21588,23851
460800.35,5262491.26,37.59,27537,2,2,0,19789,18504,20046,23622
460800.47,5262490.72,38.91,28841,2,3,0,17476,16448,18247,26074
460800.52,5262490.46,41.38,30113,1,3,0,42662,39578,38550,24272
460799.8,5262493.88,8.85,28104,3,3,0,25957,24672,23644,39780
460800.49,5262490.61,36.16,27809,3,3,0,21074,20817,22873,23003
460800.59,5262490.12,40.87,30401,1,3,0,28527,26985,26728,24873
460800.56,5262490.28,39.29,27790,2,3,0,24415,21845,22616,26025
460800.64,5262489.91,39.17,30850,1,1,0,17219,16705,19789,22330
460800.64,5262489.93,35.29,27835,2,2,0,23130,20817,21074,21338
460800.71,5262489.58,35.24,29041,2,3,0,13621,14906,18247,18283
460799.98,5262493.04,1.71,27613,3,3,0,12336,13107,17476,18633
460800.81,5262489.12,39.78,30513,1,3,0,23901,23130,23901,22203
460800.8,5262489.18,35.4,29009,2,3,0,11565,11051,15420,15888
460800.89,5262488.76,39.56,29510,1,3,0,25957,25443,28270,19826
460800.99,5262488.28,40.49,30824,1,3,0,13621,13621,17219,17507
460800.12,5262492.39,0,28851,3,3,2,10023,11051,16191,14118
460801.14,5262487.59,39.96,30434,1,4,0,19275,18761,21845,17160
460800.86,5262488.88,27.34,27547,3,4,0,18247,17733,20817,15129
460801.06,5262487.96,36.19,27413,2,4,0,14649,14135,17990,18511
460800.45,5262490.86,0,31407,2,2,2,10794,12336,17733,11502
460801.31,5262486.8,40.33,30021,1,2,0,20817,20560,21331,24258
460801.33,5262486.71,37.24,29995,1,3,0,14906,14135,16705,19023
460801.2,5262487.31,31.36,29251,2,3,0,19018,18761,22102,19118
460800.62,5262490.06,0,30214,3,3,2,16191,16705,20817,17781
460801.28,5262486.92,31.47,28461,2,3,0,12336,12850,16448,20251
460801.37,5262486.53,31.48,28144,2,3,0,18504,18504,21588,20967
460801.47,5262486.06,36.21,29457,1,3,0,21845,20303,21331,21652
460801.67,5262485.09,37.81,30345,1,2,0,14649,15420,16962,27364
460801.75,5262484.75,37.41,30729,1,2,0,14392,14649,17733,29291
460801.68,5262485.06,30.56,27154,2,2,0,12079,12336,16448,20458
460801.77,5262484.66,30.15,28543,2,2,0,29555,26728,26985,32729
460801.86,5262484.22,31.1,28740,3,4,0,35980,31868,27499,37859
460801.96,5262483.79,35.44,29562,2,4,0,39578,36494,32896,33886
460801.7,5262484.99,23.29,28245,4,4,0,40092,35723,29298,39171
460802.12,5262483.01,35.83,30028,2,4,0,21074,20046,20303,33130
460802.02,5262483.5,30.64,28727,3,4,0,35209,30326,25186,42251
460802,5262483.6,25.51,28183,3,4,0,45489,40349,34181,41987
460802.11,5262483.08,31.1,28737,2,4,0,33667,29298,26985,40553
460801.47,5262486.09,0.31,28635,4,4,0,34952,31097,25700,39366
460802.27,5262482.31,35.28,28651,1,5,0,16962,15420,15420,27596
460801.55,5262485.75,0,28360,5,5,2,30069,26985,23387,34687
460802.24,5262482.44,34.21,29300,2,5,0,37522,34181,31097,29235
460802.19,5262482.69,31.52,29346,3,5,0,40606,36494,29812,40846
460802.07,5262483.26,25.54,27940,4,5,0,37008,32639,27499,37889
460802.37,5262481.85,35.89,30283,1,3,0,23644,21074,22873,29359
460802.15,5262482.87,25.35,27213,3,3,0,33410,30583,27756,37750
460802.33,5262482.05,33.77,28009,2,3,0,34952,30326,27756,24669
460801.72,5262484.94,0.12,28527,2,2,0,23901,21588,22359,27321
460801.81,5262484.5,0.52,28946,2,2,0,21331,20046,21074,26154
460802.35,5262481.96,23.17,28579,2,3,0,17733,17476,18247,32480
460802.53,5262481.12,32.23,30473,1,3,0,26214,24672,23644,36320
460801.89,5262484.16,0,29500,3,3,2,25957,25443,26214,27717
460801.98,5262483.74,0.14,31227,1,1,0,26471,25443,26985,30859
460802.69,5262480.38,32.1,28586,2,3,0,22616,22102,21331,27094
460802.07,5262483.31,0.61,29910,3,3,0,19532,17733,17990,28614
460802.81,5262479.82,38.12,30732,1,3,0,24415,20303,20560,25705
460802.78,5262479.95,32.38,30175,2,3,0,19789,20046,21074,29746
460802.89,5262479.43,37.71,29648,1,3,0,33153,30326,26728,23224
460802.34,5262482.06,0.87,30634,2,2,0,26471,25186,25700,28807
460802.78,5262479.94,24.1,29828,1,2,0,13878,14135,17219,23743
460802.43,5262481.64,1.03,30745,2,2,0,14649,14649,17219,23244
460802.49,5262481.36,0.46,30595,3,3,0,26214,25443,26985,23816
460803.07,5262478.62,30.23,28153,2,3,0,13878,14649,16962,21783
460803.27,5262477.65,36.95,30863,1,2,0,24672,22873,21074,24288
460802.56,5262481.02,0,27685,2,2,2,19532,19018,21588,27175
460802.64,5262480.67,0,28687,2,2,2,19789,20560,23644,27958
460803.41,5262477.02,36.28,30880,1,2,0,26728,23901,23644,34405
460802.71,5262480.31,0,28533,2,2,2,13878,14392,17733,25644
460803.47,5262476.71,35.6,29956,1,2,0,15420,14135,14906,29270
460803.5,5262476.61,32.29,28717,2,3,0,15420,15677,16962,28938
460802.89,5262479.49,0.32,28782,3,3,0,11051,11565,14906,22049
460803.56,5262476.29,35.47,29972,1,3,0,10537,10794,12850,15198
460803.57,5262476.25,32.13,30149,2,2,0,20817,20817,21588,27820
460803.04,5262478.8,0,27544,3,3,2,10794,12079,16448,18549
460803.7,5262475.66,30.53,28606,2,2,0,17990,17733,16962,31446
460803.74,5262475.5,32.25,28245,1,2,0,21588,19275,19789,35297
460803.82,5262475.1,32.95,28684,2,2,0,21074,20560,21074,32696
460803.86,5262474.92,34.99,29841,1,2,0,28013,26214,24672,36139
460803.27,5262477.69,0,28370,3,3,2,8995,10280,15420,15166
460803.88,5262474.84,31.64,28540,2,3,0,22102,21845,23387,32598
460803.94,5262474.55,34.73,30837,1,3,0,28784,28527,28013,32016
460803.96,5262474.45,31.42,28327,2,2,0,21074,20560,22102,28399
460803.98,5262474.36,28.62,28212,2,2,0,15420,15677,16962,24967
460804.05,5262474.03,28.26,28153,2,2,0,14392,14392,17476,27950
460804.23,5262473.18,33.97,30483,1,3,0,30326,28270,27499,24908
460804.13,5262473.69,28.09,28317,2,3,0,16191,15934,17990,29817
460803.69,5262475.75,0,29241,2,2,2,11822,12336,17990,14892
460804.3,5262472.88,32.79,30149,1,2,0,15934,16705,18247,24485
460803.78,5262475.35,0.43,29526,2,2,0,12079,12850,17990,12623
460803.87,5262474.93,0.6,30463,2,2,0,12593,13364,18761,14090
460804.46,5262472.14,32.81,29988,1,2,0,19275,18761,21074,25003
460803.94,5262474.59,0.41,31876,2,2,0,9252,10794,15677,16516
460804.42,5262472.33,26.57,28563,1,2,0,13621,14906,17476,15134
460804.01,5262474.27,0,31496,1,1,2,9509,10280,16191,12464
460804.55,5262471.71,25.7,30034,1,2,0,13878,12850,16448,11323
460804.1,5262473.85,0.28,31174,2,2,0,10023,11308,16705,11685
460804.18,5262473.46,0.35,31129,2,2,0,16705,15420,20560,11561
460804.28,5262473.02,0.85,32135,1,1,0,13364,11565,15934,14918
460804.35,5262472.67,0.15,31895,1,1,0,12079,12593,17219,15011
460804.51,5262471.92,0.65,32020,1,1,0,10023,11308,16448,12477
460804.66,5262471.25,0,31922,1,1,2,10023,11308,16962,11148
460804.74,5262470.89,0.33,32000,1,1,0,12079,13364,18504,12298
460797.95,5262503.81,44.28,27524,1,3,0,16191,15677,17476,22681
460797.81,5262504.5,34.98,28311,1,2,0,36237,32896,32125,31794
460798,5262503.62,35.85,28334,2,2,0,37779,32125,28784,37612
460798.06,5262503.34,34.25,28140,4,4,0,34695,30583,24672,38758
460798.26,5262502.37,42.93,28569,1,4,0,19532,16448,15163,29216
460798.31,5262502.15,41.48,27537,2,3,0,41634,37779,32382,37182
460798.37,5262501.87,43.46,30516,1,3,0,30840,26985,26471,30560
460798.15,5262502.92,34.49,29225,3,3,0,25443,21331,21845,32456
460798.45,5262501.52,43.21,31017,1,2,0,42148,36494,33410,39688
460797.84,5262504.36,16.36,28127,4,4,0,39835,34438,31354,38155
460798.47,5262501.42,40.82,28963,2,4,0,42662,37779,32896,42110
460798.53,5262501.12,40.39,28140,2,3,0,40606,34952,30583,41466
460798.51,5262501.22,39.53,28599,3,3,0,37522,31868,26728,41447
460798.61,5262500.76,43.87,30876,1,3,0,46003,40092,33924,37397
460798.69,5262500.4,43.72,31119,1,3,0,40863,35466,30583,41524
460798.64,5262500.62,41.6,28252,2,3,0,36751,31354,26985,40260
460798.77,5262500.01,43.51,30447,1,2,0,35209,30326,26471,39421
460798.85,5262499.64,43.26,30418,1,2,0,38293,33667,31097,38626
460798.87,5262499.54,40.94,27360,3,3,0,19532,17219,17476,33084
460798.91,5262499.35,42.73,30191,2,3,0,31354,27499,24672,36299
460799.05,5262498.72,48.4,29195,1,3,0,41634,34695,32382,31160
460799.12,5262498.36,47.91,31017,1,2,0,38550,32896,30069,22942
460799.2,5262498.01,47.93,30404,1,2,0,37522,30583,27499,22250
460799.03,5262498.8,41.03,29851,2,2,0,30326,26471,25443,35802
460799.1,5262498.45,40.73,27790,2,3,0,38807,34438,29555,36465
460799.07,5262498.61,39.22,28861,3,3,0,36751,32382,28013,39906
460799.34,5262497.34,47.11,30742,1,3,0,30326,27242,24158,39714
460799.14,5262498.3,38.37,28239,3,3,0,29555,25443,23644,38443
460799.18,5262498.1,40.28,27780,2,3,0,36494,32382,25443,41605
460799.39,5262497.13,45.63,29326,2,3,0,22616,19018,17733,36628
460799.21,5262497.99,37.75,28681,3,3,0,35466,31868,30069,34831
460799.42,5262496.97,46.9,30418,1,3,0,36751,33153,29298,35938
460799.55,5262496.36,49,27862,1,6,0,36494,31097,28270,33551
460799.22,5262497.93,34.84,28455,5,6,0,39321,34952,33667,33310
460799.46,5262496.77,45.29,28343,3,6,0,29041,25700,23644,39268
460799.28,5262497.66,37.45,29303,4,6,0,39578,34438,31868,34810
460799.15,5262498.24,31.94,28042,6,6,0,25186,21845,20303,36533
460799.49,5262496.63,46.48,28730,2,6,0,37779,32382,29555,40329
460799.59,5262496.17,43.35,30755,1,2,0,40863,34952,31611,36332
460799.37,5262497.23,34.13,28900,2,2,0,35209,31097,26985,36319
460799.66,5262495.86,42.39,30283,3,3,0,40606,34438,29812,40695
460799.82,5262495.11,44.81,29523,2,2,0,36237,31868,27756,38186
460799.88,5262494.84,47.44,30391,1,2,0,38550,33667,30069,36905
460798.86,5262499.66,0.85,28435,4,4,0,26728,24929,23387,29860
460799.96,5262494.44,47.52,29575,2,4,0,46003,40349,36751,33740
460799.62,5262496.04,33.33,29032,3,4,0,34695,30583,28527,30925
460799.99,5262494.3,48.84,28478,1,4,0,39578,33924,30583,35661
460799.98,5262494.37,44.82,29703,2,3,0,42148,36751,34952,38383
460800.06,5262493.98,48.38,29618,1,3,0,37265,31611,28527,36841
460800.08,5262493.89,45.5,28864,2,3,0,44204,38293,34952,40594
460800.16,5262493.52,48.77,30536,1,3,0,33410,28784,25186,37123
460800.06,5262493.99,44.55,28314,3,3,0,41377,35466,31354,40209
460800.23,5262493.19,48.64,30752,1,2,0,39578,34695,32125,33854
460800.15,5262493.59,44.89,28481,2,2,0,39064,33667,29041,34301
460800.39,5262492.44,48.6,28776,1,3,0,37265,32125,29298,30375
460800.3,5262492.86,44.52,29834,3,3,0,33924,29298,25700,37894
460800.42,5262492.32,42.22,27813,3,3,0,28784,24929,21588,30346
460800.46,5262492.12,43.9,29549,2,3,0,31868,29041,30840,31758
460800.57,5262491.6,45.24,28606,2,4,0,23901,22359,22616,28939
460800.63,5262491.34,47.94,28645,1,4,0,24158,21331,19789,29702
460800.5,5262491.95,41.89,29261,3,4,0,30326,29041,26728,29424
460800.48,5262492.05,40.93,28419,4,4,0,31868,28527,26985,32453
460800.55,5262491.72,40.61,30064,1,3,0,24158,20046,18761,24122
460800.52,5262491.84,35.99,27537,3,5,0,26214,24929,25957,29133
460800.58,5262491.59,38.42,28514,2,5,0,39064,35209,33153,38337
460800.44,5262492.24,32.32,27996,4,5,0,17733,16962,19789,25514
460800.66,5262491.21,38.58,30529,2,3,0,23901,22616,23387,25537
460800.72,5262490.9,41.48,30090,1,3,0,26728,25186,27242,22240
460800.75,5262490.81,38.94,30519,2,3,0,19018,18761,21074,23556
460800.8,5262490.54,41.33,28176,1,3,0,33924,32639,31868,22917
460799.97,5262494.5,0,29634,4,4,2,16448,16448,19275,25232
460800.88,5262490.17,41.36,28399,1,4,0,26471,24415,24415,25649
460800.83,5262490.42,38.9,28589,2,4,0,24415,23130,24929,27170
460800.8,5262490.57,37.34,29300,3,4,0,18761,18504,20817,22117
460800.95,5262489.84,40.69,29222,1,3,0,19275,17990,20303,23344
460801,5262489.6,39.81,30690,1,1,0,12079,13107,16191,20226
460801.09,5262489.22,39.53,30581,1,1,0,14649,14135,17733,25742
460801.08,5262489.24,35.47,29408,3,3,0,15163,15677,19275,19436
460801.16,5262488.89,38.9,30316,2,3,0,13621,13364,16448,20446
460801.23,5262488.55,38.61,27328,2,4,0,15163,15163,18247,19981
460800.4,5262492.48,0,29838,4,4,2,22359,22873,27499,22043
460801.26,5262488.4,40.07,29615,1,4,0,23644,23130,24929,21905
460800.97,5262489.78,26.52,27816,3,4,0,17733,17219,20560,20484
460801.08,5262489.26,27.83,28563,2,3,0,17476,17476,20046,22533
460801.17,5262488.86,27.99,28953,2,3,0,19018,18761,22102,19357
460801.43,5262487.63,36.05,27373,2,3,0,26985,25186,25700,24265
460801.52,5262487.19,40.49,30739,1,3,0,25186,24415,25186,23180
460801.33,5262488.11,27.72,27803,2,3,0,29555,28013,29555,21583
460800.74,5262490.9,0,29153,3,3,2,8995,10023,16448,9589
460801.59,5262486.86,39.95,30244,1,3,0,21845,21588,22873,25370
460801.41,5262487.74,27.58,28180,3,4,0,19275,18247,20046,21256
460801.61,5262486.79,36.95,29107,1,4,0,26471,24158,24672,21230
460801.7,5262486.37,37.1,30254,1,3,0,17476,16191,17733,27496
460800.92,5262490.06,0.12,29294,3,3,0,11308,12079,16448,12821
460801.59,5262486.9,31.64,28615,2,3,0,12336,13107,17990,19552
460801.66,5262486.57,31.46,29369,2,3,0,13107,13878,17733,23448
460801.76,5262486.08,36.59,28861,1,3,0,31611,29812,30326,23860
460801.73,5262486.22,31.46,29425,2,4,0,17733,17733,20303,23145
460801.87,5262485.57,38.03,28959,1,4,0,23130,21588,22102,20305
460801.71,5262486.34,30.2,27383,3,4,0,12336,11822,15163,22708
460801.16,5262488.93,0.2,28773,2,2,0,28527,25957,23644,33764
460801.98,5262485.05,34.87,28802,2,3,0,33153,30583,30583,25329
460802.05,5262484.76,34.33,27485,3,5,0,13364,13107,15163,22592
460802.11,5262484.47,37.37,29346,1,5,0,22102,21074,22359,27369
460801.98,5262485.08,30.96,27318,4,5,0,12336,12336,16962,20869
460802.08,5262484.62,35.78,28127,2,5,0,20046,17733,17990,26265
460801.33,5262488.16,0.11,29199,5,5,0,31611,27242,24672,36961
460802.14,5262484.33,30.77,27894,3,5,0,32639,30326,26728,39564
460802.02,5262484.91,24.84,27655,4,5,0,35723,31097,25186,39931
460801.99,5262485.04,23.5,28058,5,5,0,40349,35980,31868,36984
460802.28,5262483.68,37.62,29412,1,5,0,36751,33410,29298,34258
460802.24,5262483.84,35.98,29756,2,5,0,29812,27242,24672,41233
460802.32,5262483.48,35.51,28730,2,3,0,24929,22616,20560,35303
460801.69,5262486.46,5.37,28832,3,3,0,16191,15163,17990,20260
460801.66,5262486.59,0.01,29172,4,4,0,39835,35723,30840,38981
460802.18,5262484.13,25.17,28098,3,4,0,32125,27756,23644,40970
460802.24,5262483.87,23.84,27718,3,4,0,34695,30326,26728,41214
460802.29,5262483.65,26.25,29113,2,4,0,41634,37008,30840,41719
460801.75,5262486.2,0,29041,4,4,2,35723,32639,29041,36359
460802.33,5262483.47,23.67,28979,3,4,0,28013,24158,22616,34982
460802.36,5262483.31,25.36,29169,2,4,0,28013,25443,22359,33775
460802.65,5262481.95,35.35,28180,1,3,0,28527,23901,21331,20994
460802.41,5262483.09,23.56,27380,2,3,0,23644,20817,20046,32935
460802.02,5262484.95,0,30749,3,3,2,26471,23901,23901,29160
460802.68,5262481.83,32.57,28550,2,3,0,35980,31868,27242,39661
460802.1,5262484.56,0,29775,4,4,2,20046,18504,17990,25000
460802.58,5262482.29,23.55,28511,2,4,0,22873,20303,19789,32647
460802.11,5262484.52,0.39,30473,3,4,0,20303,18761,18504,25452
460802.75,5262481.49,32.16,27632,1,4,0,30583,26214,23644,37997
460802.95,5262480.52,38.38,30313,1,2,0,23130,19789,16962,27428
460802.19,5262484.15,0,29346,2,2,2,20046,19275,19532,23637
460803.03,5262480.17,38.41,30096,1,2,0,37779,33924,32125,22546
460802.29,5262483.69,1.02,30781,2,2,0,21074,19789,20817,30596
460802.45,5262482.93,1.05,29100,3,3,0,10794,10280,11565,21569
460803.18,5262479.47,38.05,30545,1,3,0,39064,36237,32125,36406
460803,5262480.33,25.15,30231,1,2,0,14135,13878,16448,29413
460802.52,5262482.58,0.92,29942,2,2,0,17733,17733,19532,25730
460803.19,5262479.41,31.2,28170,1,3,0,20560,20303,22102,23465
460802.6,5262482.25,0.49,30680,3,3,0,20817,20560,23387,22130
460803.06,5262480.06,24.36,29516,2,3,0,13107,13621,17733,22652
460802.68,5262481.85,0.31,31135,2,2,0,21074,20560,23901,17333
460803.34,5262478.76,30.28,29729,1,3,0,14649,14649,16962,22838
460802.83,5262481.16,0.09,29215,3,3,0,22359,22102,24158,15703
460803.54,5262477.8,36.99,30139,1,3,0,24415,22873,23387,20451
460803.69,5262477.1,36.78,30994,1,2,0,29555,26471,25957,37927
460802.98,5262480.44,0,28805,2,2,2,12593,13364,16962,21816
460803.76,5262476.76,36.23,30070,1,2,0,30069,28784,28270,30744
460803.67,5262477.19,31.76,29258,2,2,0,11308,11822,14392,20544
460803.91,5262476.07,35.42,30919,1,2,0,23387,21845,23387,34062
460803.99,5262475.71,35.35,30024,1,3,0,19018,17476,17990,28893
460803.93,5262475.98,32.59,28373,2,3,0,20046,19532,19789,31806
460804.04,5262475.47,29.56,28275,2,2,0,22102,22102,23387,34728
460804.15,5262474.95,35.32,30375,1,2,0,28784,27499,26728,36744
460803.55,5262477.81,0,28471,5,5,2,11051,12079,16962,16254
460804.15,5262474.98,31.22,28258,2,5,0,19275,18761,19532,29866
460803.64,5262477.4,0,27596,4,4,2,11051,11565,17733,15833
460804.29,5262474.3,34.6,30690,1,4,0,21331,20817,21845,29429
460804.23,5262474.58,31.41,28838,2,4,0,17990,17990,19789,26345
460804.37,5262473.95,34.47,30870,1,1,0,23901,22102,22873,29840
460804.43,5262473.64,34.12,30241,1,4,0,24672,21588,21588,29757
460804.38,5262473.88,31.38,30031,2,4,0,22359,23901,24672,25438
460804.52,5262473.26,34.02,30418,1,4,0,19532,19275,19275,31177
460804.49,5262473.37,32.7,27695,2,4,0,16448,17476,20560,28954
