"X","Y","Z","Intensity","ReturnNumber","NumberOfReturns","Classification","R","G","B","NIR"
460758.81,5262516.46,5.26,31135,1,2,0,20817,19275,22359,15845
460758.83,5262516.5,4.42,31227,1,2,0,21588,20046,23387,22856
460758.82,5262516.47,3.47,31086,1,1,0,24415,23644,25957,27959
460758.81,5262516.42,2.42,31240,1,1,0,22616,19789,22102,29918
460758.78,5262516.34,1.38,31407,1,1,0,22873,18247,19532,30538
460758.87,5262516.6,0,32158,1,1,2,15163,14392,19018,12088
460759.22,5262517.66,0,32000,1,1,2,16448,16191,20046,11995
460759.43,5262518.3,0,32085,1,1,2,17476,16705,22102,12192
460759.79,5262519.4,0.16,31794,1,1,0,16448,17219,20817,12169
460760.04,5262520.17,0.38,31483,1,1,0,15420,17219,19789,12170
460760.4,5262521.26,0.86,31571,1,1,0,11051,12079,18761,10562
460760.54,5262521.67,0.99,31394,1,1,0,11308,12593,18247,12968
460760.64,5262521.97,0,31699,1,1,2,17476,17219,20817,11623
460760.85,5262522.6,0,31597,1,1,2,20560,18247,18761,16250
460761.28,5262523.9,0.78,31237,1,1,0,14135,14392,20046,11543
460761.32,5262524.03,0.36,30408,2,2,0,14649,14649,19532,10772
460753.86,5262500.66,25.76,28740,2,3,0,34438,33924,34181,0
460750.47,5262490.25,0,29287,3,3,2,17990,17476,21588,0
460750.59,5262490.59,0,28553,2,2,2,15677,14649,17990,0
460756.01,5262507.25,41.69,31296,1,2,0,30069,28527,28270,0
460750.85,5262491.39,0.32,31197,2,2,0,20046,19018,19018,0
460754.76,5262503.4,28.19,29949,1,3,0,17733,17476,21074,10810
460754.41,5262502.32,25.63,28796,2,3,0,18247,17990,21588,10116
460751.07,5262492.05,0,30352,3,3,2,16705,16705,19789,12274
460754.83,5262503.61,27.83,28701,1,3,0,27756,27756,29812,18246
460754.53,5262502.67,25.42,29421,2,3,0,27499,27242,29555,17121
460754.59,5262502.87,24.94,29910,1,2,0,13364,13878,18247,10952
460751.3,5262492.76,0,30883,2,2,2,16705,16962,20817,16060
460751.57,5262493.57,0,31266,2,2,2,10280,11822,18247,9077
460755.51,5262505.67,30,29723,1,2,0,11051,12593,17733,8586
460755.61,5262505.99,29.88,30614,1,2,0,14906,15677,20560,11753
460751.8,5262494.27,0,29264,2,2,2,12336,13107,17990,12331
460751.91,5262494.6,0,29857,2,2,2,14649,16191,19275,15109
460755.84,5262506.69,30.46,30470,1,2,0,19532,20817,23901,20038
460755.5,5262505.64,26.63,27934,2,3,0,13107,14392,18504,16549
460752.03,5262494.96,0,30450,3,3,2,17476,17990,22102,18538
460756.02,5262507.21,30.83,29395,1,3,0,12850,14392,18504,15804
460752.15,5262495.32,0,31037,2,2,2,14906,15163,18247,15645
460756.35,5262508.23,31.06,28930,1,3,0,16962,16962,21074,17220
460755.7,5262506.22,25.96,30047,2,3,0,19789,19532,23387,15826
460755.74,5262506.34,25.3,28822,2,3,0,20560,20560,23644,23686
460755.95,5262506.98,26.98,27731,1,3,0,18504,18761,22102,22794
460752.5,5262496.41,0,31401,3,3,2,15420,15420,18761,15698
460755.89,5262506.81,25.66,27973,1,2,0,22616,21845,23387,25318
460752.73,5262497.1,0.11,30339,2,2,0,37008,34438,34695,24436
460752.85,5262497.46,0.09,31207,2,2,0,26214,23387,22873,21722
460752.97,5262497.84,0.04,31669,2,2,0,47031,43176,41634,23900
460753.09,5262498.18,0.13,31659,2,2,0,51143,46774,42148,26944
460756.69,5262509.25,28.46,30028,1,2,0,36237,32639,33410,25657
460753.33,5262498.92,0.24,31784,1,1,0,34438,31868,31611,24426
460753.45,5262499.27,0.39,31666,1,1,0,28270,26728,26985,20461
460753.6,5262499.72,0.98,31417,1,1,0,21588,20560,22359,17819
460753.76,5262500.21,0.53,31161,1,1,0,28270,26728,26471,19085
460753.81,5262500.38,0,31338,1,1,2,15163,15163,17733,14743
460757.27,5262510.99,25.76,29146,1,2,0,17733,17476,20817,22169
460757.48,5262511.62,26.23,30522,1,2,0,21845,21845,22102,24808
460757.76,5262512.47,26.76,30572,1,3,0,27242,26985,27756,26981
460754.45,5262502.32,1.08,28363,2,3,0,27756,27756,27242,24595
460754.41,5262502.18,0,28438,3,3,2,29555,28527,27499,24748
460754.58,5262502.72,1.1,28792,2,3,0,29298,28270,27499,24379
460757.85,5262512.76,26.96,30726,1,3,0,23901,23387,24672,24558
460757.99,5262513.18,27.16,29022,1,2,0,24929,24672,26985,12943
460754.56,5262502.65,0,30883,2,2,2,28270,28270,28270,22864
460754.69,5262503.05,0.35,31430,1,1,0,25443,24929,27756,21943
460754.78,5262503.3,0,31568,1,1,2,28527,28013,28527,20002
460755.03,5262504.07,0,31843,1,1,2,25700,22359,25700,13517
460755.5,5262505.48,0,31964,1,1,2,26728,25186,26728,10254
460755.73,5262506.18,0.33,31597,1,1,0,23644,21845,24672,22205
460755.94,5262506.83,0.02,31345,1,1,0,40092,34438,32125,20565
460759.93,5262519.09,31.29,28448,1,2,0,44204,40092,36751,27390
460756.14,5262507.44,0,31299,2,2,2,26471,23644,25443,19199
460760.53,5262520.92,33.14,28707,1,2,0,29041,26985,26985,25602
460759.43,5262517.52,21.66,28674,2,3,0,27499,25186,25957,30618
460760.97,5262522.25,34.19,30441,1,3,0,26985,25186,24929,28712
460759.25,5262516.96,19.17,29307,3,4,0,31097,29555,28527,28983
460760.84,5262521.83,30.44,28379,1,2,0,26214,25186,28013,19790
460760.94,5262522.13,30.24,28874,2,4,0,21331,19532,21331,20821
460761.22,5262522.98,32.61,29818,1,4,0,21074,19275,21074,20769
460761.06,5262522.49,30.52,28347,2,2,0,31868,29812,29041,31652
460761.5,5262523.85,34.34,30336,1,2,0,32896,30840,30069,30327
460761.36,5262523.41,31.12,28612,2,2,0,33410,31611,29041,32222
460761.66,5262524.34,33.64,30096,1,2,0,32639,30840,28270,32160
460757.82,5262512.52,0,28638,3,3,2,17990,17219,20303,14673
460759.17,5262516.67,11.07,29510,2,3,0,26728,25700,26728,14711
460759.08,5262516.38,7.8,28189,2,3,0,39064,35466,32382,28828
460759.07,5262516.36,6.85,27777,2,3,0,32639,30326,29298,26656
460758.38,5262514.22,0,31620,1,1,2,23901,22359,22616,10512
460758.75,5262515.36,0.25,31286,2,2,0,12850,13107,17476,15978
460759,5262516.12,2.51,28871,1,2,0,13107,13107,18761,14024
460758.89,5262515.79,0.38,31273,1,1,0,16705,14135,20303,18181
460759.03,5262516.21,0.93,31804,1,1,0,44204,39321,39064,22395
460759.09,5262516.39,0.35,31751,1,1,0,46003,43433,43690,17109
460759.18,5262516.64,0,31886,1,1,2,22102,21074,26214,10087
460759.27,5262516.93,0,32076,1,1,2,15934,15420,20817,10983
460759.85,5262518.69,0.41,31630,1,1,0,20817,20303,21074,14404
460760.23,5262519.82,0.7,31371,1,1,0,14649,15163,19532,12924
460761.11,5262522.49,0.75,31882,1,1,0,18761,17990,20046,12658
460761.26,5262522.96,0,31725,1,1,2,21588,20560,22616,18966
460761.71,5262524.32,0,30716,2,2,2,13621,14135,19789,11813
460750.87,5262490.28,0.02,28016,2,2,0,29555,29298,31354,0
460751.13,5262491.06,0.31,30191,3,3,0,31354,29812,30069,0
460756.5,5262507.58,41.51,29877,1,3,0,21331,21331,21845,0
460754.51,5262501.43,26.44,28465,2,3,0,33924,32382,29812,0
460751.81,5262493.17,4.49,29454,2,3,0,23387,22616,21074,0
460751.22,5262491.33,0,30729,3,3,2,26985,26214,24672,0
460754.67,5262501.92,25.89,28248,2,3,0,12850,14135,19275,10198
460754.85,5262502.49,26.98,28678,1,3,0,12336,13878,19275,10547
460751.32,5262491.64,0,31351,3,3,2,37265,37522,36494,24292
460755.11,5262503.29,28.03,29864,1,3,0,12336,13364,18247,19798
460754.72,5262502.08,25.36,28832,2,3,0,11051,11822,16191,20467
460754.9,5262502.64,25.6,30031,1,2,0,13878,14906,17990,20940
460751.54,5262492.32,0,30287,2,2,2,25700,25700,29041,16352
460751.66,5262492.66,0,31079,2,2,2,13878,14135,17476,11524
460755.07,5262503.15,25.22,30214,1,2,0,14906,15420,19275,9795
460751.78,5262493.04,0,30355,2,2,2,10280,11822,17733,9442
460754.94,5262502.74,23.23,29906,1,2,0,11822,13107,17476,10499
460752.11,5262494.03,0,29972,2,2,2,17219,17219,21588,12964
460756.1,5262506.28,30.69,30172,1,2,0,13878,15163,19018,17827
460752.26,5262494.49,0,31211,2,2,2,16962,18247,19789,14936
460756.01,5262506.02,29.03,29317,1,2,0,14135,15420,19018,18515
460756.34,5262507.03,30.66,30418,1,2,0,20560,21074,24158,13619
460752.5,5262495.23,0,30093,2,2,2,13364,13621,19018,15593
460752.62,5262495.58,0,30257,2,2,2,14649,15163,18504,15744
460756.72,5262508.16,31.39,28412,1,3,0,16448,16448,21074,14195
460755.91,5262505.67,24.91,28107,2,3,0,15420,15677,20560,17063
460752.84,5262496.24,0,31122,2,2,2,19532,19532,22102,23984
460756.06,5262506.13,25.03,28543,1,2,0,12593,12593,18504,15610
460752.94,5262496.56,0.08,31604,1,1,0,23387,22873,22873,26774
460756.42,5262507.23,26.44,27940,1,2,0,24158,21845,22102,19065
460756.96,5262508.89,28.81,30067,1,2,0,36751,32639,33924,22158
460753.31,5262497.67,0,31332,2,2,2,41120,36751,34952,31038
460757.09,5262509.28,28.74,27593,1,2,0,39578,34952,34438,22625
460753.41,5262497.99,0,31541,2,2,2,41634,37522,35209,28532
460753.66,5262498.75,0.9,31227,1,1,0,36237,33924,33667,20389
460753.69,5262498.83,0.16,31220,1,1,0,27242,25443,25700,19387
460753.86,5262499.34,1.1,31492,1,1,0,23130,22873,24158,18339
460754.01,5262499.81,1.11,31571,1,1,0,21331,20303,22616,15584
460754.07,5262499.99,0.57,30424,1,2,0,30326,29041,28270,16248
460753.98,5262499.7,0,30948,2,2,2,30069,28527,27756,16408
460754.14,5262500.18,0.31,31211,1,1,0,21074,20560,22359,13595
460754.3,5262500.69,0.96,31266,1,1,0,13621,13364,17990,14428
460754.33,5262500.77,0.37,30886,2,2,0,18761,18504,21331,22612
460757.83,5262511.52,26.12,30136,1,2,0,24929,24415,25186,24922
460754.51,5262501.33,0.09,30709,2,2,0,26471,25186,25700,25705
460754.64,5262501.7,0,31171,2,2,2,25957,25186,24929,26555
460754.91,5262502.54,0,30441,2,2,2,22359,22359,24672,13411
460758.39,5262513.21,27.25,29762,1,2,0,27756,26471,27499,15831
460755.06,5262503,0.38,31365,1,1,0,16448,15677,20560,13380
460755.15,5262503.26,0,31813,1,1,2,25957,25443,26214,18792
460755.26,5262503.6,0,31869,1,1,2,32382,31868,32125,16731
460755.52,5262504.38,0.32,31863,1,1,0,34438,29812,29298,19478
460755.62,5262504.67,0,31895,1,1,2,34438,31868,31611,14481
460755.73,5262505.01,0.24,31600,1,1,0,29555,25957,27499,12822
460755.96,5262505.72,0.22,31794,1,1,0,22616,22359,23901,18673
460756.4,5262507.06,0.29,31541,1,1,0,43690,39578,37265,26162
460760.75,5262520.42,33.75,28950,1,2,0,41891,38807,35723,25059
460760.92,5262520.92,34.46,30722,1,2,0,34181,31354,30583,21403
460761.25,5262521.94,35.29,29559,1,3,0,30583,28013,27499,21015
460761.28,5262522.01,34.47,30496,1,2,0,31611,29041,28270,26075
460759.66,5262517.03,19.71,29972,2,3,0,28013,26985,26728,28587
460757.22,5262509.52,0,30395,3,3,2,32382,31097,30069,29595
460760.88,5262520.78,29.82,28819,1,3,0,25443,24158,25186,25810
460757.35,5262509.92,0,31541,2,2,2,20560,19532,21331,13358
460757.46,5262510.26,0,30824,3,3,2,29555,28270,29812,16424
460761.6,5262522.98,33.7,29212,1,3,0,23644,22616,22359,17645
460761.3,5262522.05,30.63,28058,2,2,0,33153,31097,30583,21674
460761.88,5262523.83,34.41,30624,1,3,0,33667,31354,30069,32839
460757.71,5262511.02,0,28435,3,3,2,29041,27242,25700,32759
460761.86,5262523.76,31.48,29045,2,3,0,33410,31097,28784,32546
460758.06,5262512.07,0,28088,3,3,2,30840,29041,26985,23555
460758.36,5262512.98,0.41,29218,3,3,0,25957,24929,24672,23858
460761.99,5262524.15,30.41,27816,2,3,0,27242,25186,24929,21681
460758.96,5262514.79,0.31,31984,1,1,0,12593,12336,16962,15124
460759.06,5262515.12,0,31754,1,1,2,13364,12079,19018,9843
460759.84,5262517.49,5.47,28435,1,2,0,41377,39835,39321,12728
460759.18,5262515.47,0,31614,2,2,2,19275,17219,20817,12745
460759.81,5262517.4,4.45,29166,1,2,0,54227,50886,48059,25878
460759.31,5262515.85,0.12,31260,2,2,0,34438,31097,29555,27575
460759.77,5262517.28,3.07,29998,1,2,0,55512,53456,48316,26498
460759.76,5262517.25,2.15,30971,1,2,0,61166,61423,55769,13003
460759.72,5262517.11,0.94,31191,1,1,0,29041,29298,33410,9226
460760.29,5262518.85,0.44,31643,1,1,0,23387,24672,25443,28477
460760.59,5262519.73,0,31931,1,1,0,13878,14135,18761,10692
460760.89,5262520.66,0.07,31764,1,1,0,13878,14392,19789,10174
460761.12,5262521.35,1.42,31220,1,1,0,14135,14649,18247,11843
460761.34,5262522.02,0.76,31519,1,1,0,19018,18247,22102,13540
460761.52,5262522.55,0,31702,1,1,2,15420,15420,19018,20853
460761.77,5262523.32,0.27,31469,1,1,0,10023,11822,16962,9576
460761.98,5262523.95,1.22,29644,2,3,0,12336,12593,19275,10001
460754.46,5262500.29,25.82,27514,2,2,0,29041,28013,26728,0
460751.18,5262490.21,0.16,29153,2,2,0,32382,31354,31097,0
460754.7,5262501.02,26.14,30070,2,3,0,26214,25186,25700,0
460751.29,5262490.57,0,29785,3,3,2,29555,27242,26214,0
460756.66,5262507.05,41.38,28556,1,3,0,16705,16962,20303,0
460751.42,5262490.95,0.24,29657,4,4,0,35466,33153,30583,0
460755.22,5262502.62,29.13,28897,1,4,0,22102,22102,22616,0
460754.5,5262500.41,24.02,28406,3,4,0,28784,28013,28013,0
460754.83,5262501.44,26.5,29556,2,4,0,26214,25700,25957,0
460755.29,5262502.84,28.84,28995,1,2,0,12850,13364,16705,0
460751.63,5262491.58,0,30988,2,2,2,15420,15934,17476,0
460755.04,5262502.05,25.48,29362,1,2,0,14906,15163,20046,12216
460755.29,5262502.82,25.36,30028,1,2,0,13621,14392,19275,10337
460751.98,5262492.65,0,31148,2,2,2,12593,13621,18247,11094
460755.35,5262503,24.89,30083,1,2,0,21331,21845,25186,14826
460755.28,5262502.76,23.58,29913,1,2,0,13107,14649,18761,14131
460752.3,5262493.63,0,30775,3,3,2,13364,14649,19532,12167
460756.25,5262505.75,30.54,29176,1,3,0,11308,12336,18504,16792
460756.23,5262505.69,29.52,30617,1,3,0,16962,17476,20046,16459
460755.61,5262503.78,24.13,28275,2,3,0,15677,16705,19789,17060
460752.69,5262494.79,0,30136,2,2,2,12850,14392,18761,15993
460752.93,5262495.53,0,30473,2,2,2,15934,16448,19275,18148
460757.05,5262508.19,31.88,28825,1,2,0,17990,18504,21845,10455
460753.06,5262495.92,0,31391,2,2,2,18761,18504,22359,18141
460756.35,5262506.02,24.92,29910,1,2,0,13621,13878,19275,9375
460753.27,5262496.55,0,31679,1,1,2,24672,22873,24929,16825
460756.76,5262507.26,26.53,29575,1,2,0,30069,27242,28270,19231
460753.4,5262496.94,0,31256,2,2,2,25186,22873,24158,19959
460753.64,5262497.68,0,31728,1,1,2,37779,33153,32639,24638
460753.88,5262498.4,0,28334,2,2,2,28784,26985,27499,24977
460753.95,5262498.63,0.64,31079,1,2,0,28784,26985,27499,24906
460754.23,5262499.46,0.44,31427,1,1,0,20046,19275,21845,19451
460754.46,5262500.16,1.11,31509,1,2,0,27242,26471,27242,20139
460754.33,5262499.78,0.35,28776,2,2,0,27756,26728,27242,19952
460754.6,5262500.6,0.81,31414,1,1,0,12850,12593,18247,12717
460758.12,5262511.39,27.03,29241,1,2,0,17476,17219,18504,19646
460754.63,5262500.67,0,31361,2,2,2,17476,16962,19789,17349
460754.74,5262501.01,0.32,30870,2,2,0,23387,23130,23387,26151
460754.83,5262501.29,0,30454,2,2,2,25186,23901,24672,27099
460758.32,5262512.02,26.93,30001,1,2,0,25443,25186,26214,20811
460754.96,5262501.67,0,30775,2,2,2,27499,27499,28013,27275
460758.55,5262512.7,26.97,29847,1,2,0,24672,23387,25186,19755
460755.22,5262502.48,0,31263,2,2,2,24672,24415,26728,13296
460755.61,5262503.64,0,31872,1,1,2,25186,23901,27499,14326
460756.05,5262504.99,0.03,32144,1,1,0,52942,47031,45489,21254
460756.38,5262505.99,0,31722,1,1,2,37522,31868,31611,22049
460756.62,5262506.71,0.15,31705,1,1,0,44204,39321,37779,25282
460761.25,5262520.94,34.5,28953,1,2,0,39835,35466,33667,24497
460761.49,5262521.66,35.22,30853,1,2,0,37779,34952,33410,28284
460759.74,5262516.28,20.55,28953,2,3,0,29555,26985,26471,22726
460757.28,5262508.71,0,27757,3,3,2,26471,23901,23644,23385
460761.04,5262520.25,28.82,29097,2,3,0,32382,29812,29298,25111
460757.55,5262509.53,0.34,31253,2,2,0,33410,32382,32382,24587
460761.28,5262520.98,30.03,28959,1,2,0,27242,26985,27756,13730
460757.69,5262509.94,0.43,30775,4,4,0,22359,20560,22616,16338
460761.4,5262521.36,30.09,27711,3,4,0,28527,27756,27756,19062
460761.63,5262522.05,32.24,29641,2,4,0,28784,28270,28013,19545
460757.79,5262510.26,0,28914,2,2,2,22873,21331,23901,17359
460762.13,5262523.59,34.46,30414,1,1,0,33924,31611,29812,32406
460758.32,5262511.86,0.47,28684,2,2,0,33410,31097,29041,32690
460762.12,5262523.55,30.96,28678,2,3,0,31097,29812,28784,32258
460758.84,5262513.45,0,30083,2,2,2,34952,32125,30069,30085
460758.96,5262513.82,0.38,28828,2,2,0,32125,30326,32382,19943
460759.05,5262514.08,0,29497,4,4,2,15677,14135,17476,18409
460760.17,5262517.53,9.71,29474,3,4,0,26985,25957,26214,13547
460760.25,5262517.75,9.22,31076,1,2,0,20817,20046,22359,10125
460759.17,5262514.44,0.26,28589,2,2,0,15420,14649,19789,13056
460760.2,5262517.61,8.01,31535,1,1,0,39321,37522,35723,11194
460760.18,5262517.55,7,31522,1,1,0,53456,50886,46774,12820
460760.16,5262517.48,6.01,31587,1,1,0,56540,53970,50372,20589
460760.14,5262517.4,4.76,31430,1,1,0,55512,52171,47802,24375
460759.69,5262516.01,0,29045,2,2,2,57568,55512,51657,30181
460760.11,5262517.31,3.58,31512,1,2,0,50629,48573,46003,32304
460760.09,5262517.25,2.53,30965,1,2,0,35466,34952,37265,32068
460759.93,5262516.75,0.35,31551,1,1,0,13364,13878,18761,10438
460760.23,5262517.65,0,31761,1,1,2,19789,17990,20046,12940
460760.78,5262519.32,0.67,31699,1,1,0,17476,17476,20303,12079
460760.84,5262519.5,0,31368,1,1,2,16962,16962,19789,11737
460761.26,5262520.78,0,31129,1,1,2,15934,15163,16705,17572
460761.7,5262522.11,0.89,31489,1,1,0,13878,13621,18504,14949
460761.84,5262522.52,0,31564,1,1,2,12850,13621,18247,11966
460761.98,5262522.97,0,31528,1,1,2,13878,14649,19018,9894
460762.16,5262523.51,1.11,31237,1,1,0,11051,12079,18761,11009
460762.24,5262523.75,0.63,31253,2,2,0,13364,12593,17733,18158
460751.4,5262489.94,0.28,30028,3,3,0,28013,26728,24415,0
460755.49,5262502.51,31.4,29592,2,3,0,22359,22359,23387,0
460756.73,5262506.33,41.21,28098,1,3,0,16191,16705,19789,0
460754.71,5262500.12,24.56,27554,3,4,0,18247,17733,19532,0
460751.51,5262490.29,0,29428,4,4,2,29041,27756,26728,0
460751.64,5262490.68,0.01,29824,3,3,0,34181,32125,29298,0
460755.05,5262501.15,26.52,29546,2,3,0,20303,20303,23130,0
460755.47,5262502.43,29.39,27606,1,3,0,19275,19275,22359,0
460755.52,5262502.58,28.99,29978,1,3,0,15420,15934,19275,0
460751.75,5262491.01,0.16,28723,3,3,0,33410,32382,30326,0
460755.21,5262501.63,26.15,29058,2,4,0,13107,13878,17990,0
460755.62,5262502.89,28.86,30270,1,4,0,12593,13364,17733,0
460752.17,5262492.3,2.53,28425,3,4,0,14906,15420,17990,0
460755.72,5262503.18,28.53,29841,1,3,0,14135,15420,19532,11414
460755.14,5262501.41,24.71,28658,2,3,0,13364,14392,18504,10536
460755.49,5262502.46,24.33,29661,1,2,0,19018,19532,23387,14970
460755.59,5262502.77,24.21,29965,1,2,0,14906,15420,18504,12690
460752.42,5262493.03,0,31204,2,2,2,17990,18761,22359,13384
460755.7,5262503.1,24.08,29707,1,2,0,11565,12850,17990,13456
460752.53,5262493.38,0,30965,2,2,2,13107,14392,19532,16597
460756.45,5262505.42,29.5,30218,1,3,0,11308,12079,16705,16499
460755.82,5262503.48,24.1,29585,2,3,0,11565,12336,17476,16189
460752.79,5262494.14,0,29900,2,2,2,16448,17990,22102,21311
460756.75,5262506.32,29.95,29677,1,2,0,14906,15934,19018,22246
460753.04,5262494.91,0,31476,2,2,2,14649,15420,19018,12275
460756.85,5262506.63,29.88,28766,1,2,0,14135,14906,19275,19076
460757.06,5262507.26,30.72,29402,1,2,0,28527,28527,28013,17033
460757.14,5262507.5,30.51,28864,1,2,0,22359,22102,24672,11904
460756.77,5262506.37,25.81,28347,1,2,0,13621,13621,18761,14683
460753.62,5262496.68,0,31322,2,2,2,25443,22873,23130,18341
460753.73,5262497,0,31404,2,2,2,32896,31354,31868,22663
460757.33,5262508.07,28.62,28258,1,2,0,28784,26214,26471,20820
460754.21,5262498.46,1.24,31283,1,1,0,39578,36494,36494,18759
460754.31,5262498.77,0.89,31335,1,1,0,27242,24672,26471,14701
460754.31,5262498.75,0,31866,1,1,2,24158,23387,25700,12663
460754.41,5262499.07,0,31679,1,1,2,18247,17990,21845,13579
460754.66,5262499.82,0.98,31696,1,1,0,19018,19018,22102,24676
460754.63,5262499.75,0,31807,1,1,2,18247,17733,20560,13634
460758.53,5262511.68,26.44,27976,1,2,0,15420,15163,19275,23089
460755.45,5262502.23,0,31673,1,1,2,27756,26728,26471,18035
460755.6,5262502.67,0,31702,1,1,2,18247,17733,18504,13235
460755.73,5262503.06,0,31751,1,1,2,25186,24672,28270,13824
460755.85,5262503.42,0.06,31761,1,1,0,17476,16705,20303,12901
460756.27,5262504.7,0,31633,1,1,2,36237,31354,31097,27222
460756.5,5262505.39,0.22,31745,1,1,0,40092,38293,40349,11764
460761.74,5262521.46,35.57,30496,1,2,0,34695,31354,29041,31121
460762.01,5262522.27,35.14,30486,1,2,0,33153,29812,29298,24391
460757.62,5262508.79,0,29821,2,2,2,27756,25700,26214,25855
460761.63,5262521.1,31.01,29815,2,4,0,34695,31354,30583,20050
460762.14,5262522.67,35.07,28353,1,4,0,33667,30326,28784,19140
460761.75,5262521.48,31.34,29117,2,3,0,33667,30840,29298,23010
460757.85,5262509.49,0,30729,3,3,2,19275,18247,21331,15268
460757.96,5262509.83,0,29998,2,2,2,21588,19789,21588,18099
460762.4,5262523.46,34.91,30434,1,3,0,34438,32125,30326,28641
460761.97,5262522.12,29.54,28868,2,3,0,29041,28270,26985,29351
460762.48,5262523.71,33.69,29710,1,3,0,28270,27499,26214,27959
460762.51,5262523.8,33.05,30100,1,3,0,27756,26728,26214,30871
460758.49,5262511.43,0,28055,3,3,2,31611,30583,27756,31732
460759.07,5262513.19,0.03,28507,2,2,0,37265,34695,32896,32279
460760.56,5262517.75,10.23,30015,2,2,0,27756,26471,27756,15201
460759.49,5262514.45,0,29834,2,2,2,30326,28527,29812,13127
460760.71,5262518.21,10.47,30254,1,2,0,21845,19018,20560,19082
460759.59,5262514.77,0,31774,1,1,2,34952,30069,29812,22498
460759.82,5262515.46,0,31666,1,1,2,39835,35980,33667,34323
460759.93,5262515.81,0.24,31738,1,1,0,37522,33924,33410,34817
460760.16,5262516.48,0,31843,1,1,2,15677,15934,21331,13269
460760.45,5262517.36,0,31850,1,1,2,16191,15163,19018,13138
460760.98,5262518.97,0.22,31505,1,1,0,15420,15163,19532,14251
460761.28,5262519.87,0,31922,1,1,2,14906,15420,18761,14796
460761.61,5262520.9,0.99,31233,1,1,0,29298,26214,26728,16737
460761.83,5262521.57,1.87,30001,1,2,0,24672,23130,24415,12331
460761.62,5262520.93,0.15,30139,2,2,0,22873,21588,22616,13501
460761.83,5262521.55,0,31479,1,1,2,11822,12336,17476,11791
460761.93,5262521.84,0,31584,1,1,2,12079,12336,19532,11185
460762.2,5262522.68,0,31479,1,1,2,17733,17733,21074,10962
460762.49,5262523.54,0.71,31043,1,1,0,11822,11565,18504,13555
460762.57,5262523.81,0.33,31374,2,2,0,25957,24672,24415,27507
460755.84,5262502.58,31.46,30388,1,2,0,15420,15934,19532,0
460755.93,5262502.85,31.14,28425,1,4,0,13364,13878,17733,0
460755.63,5262501.93,29.19,27544,2,4,0,13878,14392,18247,0
460754.77,5262499.29,22.52,28222,4,4,0,14135,14649,18504,0
460755.26,5262500.79,26.56,29349,3,4,0,13878,14392,18247,0
460755.75,5262502.28,29.08,30637,1,1,0,18504,18504,21845,0
460755.86,5262502.62,28.92,29625,1,3,0,13878,14906,18761,0
460752.16,5262491.27,0.79,29326,3,3,0,19018,19275,20560,0
460755.48,5262501.47,26.45,29438,2,3,0,14392,15163,19018,0
460752.21,5262491.42,0.27,28533,2,2,0,11822,13364,19018,0
460755.92,5262502.8,28.35,30447,1,2,0,11822,13364,17733,0
460752.31,5262491.73,0,30771,3,3,2,13364,13621,18247,10889
460755.81,5262502.48,26.77,28746,2,3,0,14392,15677,20560,12968
460755.9,5262502.75,26.53,29087,1,2,0,15934,16705,20817,9654
460752.44,5262492.1,0,31060,2,2,2,11051,11565,17219,11187
460755.07,5262500.18,19.31,28917,2,3,0,21074,21588,25443,10186
460755.84,5262502.54,24.34,30624,1,2,0,18247,18504,21845,16120
460752.66,5262492.78,0,30015,2,2,2,18504,18247,21845,15279
460752.78,5262493.14,0,29743,2,2,2,17219,18247,21331,12016
460756.06,5262503.22,24.12,29982,1,2,0,10280,11565,17219,12964
460756.18,5262503.58,24.61,30178,1,2,0,16191,17219,20303,20303
460753.13,5262494.21,0,31394,2,2,2,19789,20046,22873,12227
460753.27,5262494.62,0,31541,2,2,2,24672,24415,27242,23958
460757.4,5262507.29,31.07,29838,1,2,0,32639,31611,31354,15858
460757.45,5262507.45,30.52,30208,1,2,0,20303,19532,22359,15117
460753.72,5262496,0,31545,1,1,2,14135,14392,19789,10889
460757.43,5262507.37,28.68,29238,1,2,0,14392,13621,16962,14479
460754.05,5262496.99,0,31270,2,2,2,30069,27756,28013,21343
460754.18,5262497.39,0,31686,1,1,2,35466,33153,32382,23836
460754.31,5262497.79,0,31666,1,1,2,36494,33667,32382,30141
460754.43,5262498.13,0,31787,1,1,2,25443,23644,25443,20824
460754.56,5262498.52,0,30293,2,2,2,22102,20560,23130,15526
460754.64,5262498.79,0.87,30755,1,2,0,21588,20046,22616,15589
460754.81,5262499.3,0.46,31283,1,1,0,13878,14392,19018,17078
460755,5262499.86,0.17,31928,1,1,0,16705,16448,20817,12102
460755.22,5262500.52,0.16,31768,1,1,0,20560,20560,22359,24478
460755.31,5262500.82,0.4,31758,1,1,0,21588,20817,22616,22391
460755.41,5262501.1,0,31682,1,1,2,25186,24929,26214,25446
460755.67,5262501.89,0,31676,1,1,2,27499,26214,27499,23705
460755.94,5262502.72,0,31951,1,1,2,21331,20817,23901,14511
460756.19,5262503.49,0.57,31682,1,1,0,19532,18761,23130,12622
460756.51,5262504.44,0,31741,1,1,2,33410,30069,30069,18644
460756.65,5262504.86,0.6,31745,1,1,0,42148,37522,36751,19859
460756.73,5262505.12,0.2,31666,1,1,0,45746,41120,39835,17449
460757.17,5262506.45,0.06,30477,2,2,0,40606,35723,34952,24182
460761.85,5262520.81,35.48,30637,1,2,0,35723,33153,30583,32826
460757.38,5262507.06,0.33,29733,2,2,0,40863,37779,34695,29809
460761.95,5262521.12,35.9,30047,1,2,0,30583,28527,25700,29285
460762.3,5262522.17,35.55,30260,1,2,0,33924,31354,29298,29453
460760.4,5262516.33,20.3,28930,2,2,0,31868,29298,28527,25849
460761.51,5262519.73,28.35,28402,2,2,0,34181,30840,29555,27918
460758.04,5262509.08,0,29828,3,3,2,29812,28527,28784,15311
460762.52,5262522.84,34.41,29870,1,3,0,33410,31354,28527,27660
460762.62,5262523.14,34.93,30719,1,1,0,32125,30069,28270,31952
460762.75,5262523.53,34.14,30522,1,1,0,31868,31097,29812,25558
460762.36,5262522.32,29.88,28098,2,4,0,29298,28270,28013,26373
460762.05,5262521.38,27.71,28828,3,4,0,29298,28270,27756,27034
460762.05,5262521.35,26.83,29477,2,3,0,27756,26471,28013,28615
460762.51,5262522.8,30.02,29281,1,3,0,22616,21331,23130,27331
460762.15,5262521.67,26.63,28058,2,4,0,23130,21588,21588,28042
460762.29,5262522.1,27.44,27858,1,4,0,22616,21074,21074,27746
460761.3,5262519.04,19.78,29267,4,4,0,28527,27242,26728,29210
460761.45,5262519.53,20.73,28435,3,4,0,28013,26728,26214,29036
460762.74,5262523.47,30.34,30224,1,2,0,28013,27499,27499,30481
460762.58,5262522.98,27.87,28743,3,3,0,31868,30069,29555,26953
460761.83,5262520.68,21.15,28153,4,4,0,32896,30583,29298,28145
460762.7,5262523.35,28.32,30385,3,4,0,29812,26985,25700,29280
460759.54,5262513.64,0.27,28252,4,4,0,30069,29041,27242,29728
460760.96,5262518,12.52,28334,3,4,0,31097,29555,28270,30289
460760.91,5262517.84,11.18,30749,2,2,0,35980,34438,31611,28659
460760.92,5262517.85,10.32,29192,2,3,0,35209,33667,30840,16508
460759.83,5262514.51,0,31499,2,2,2,31611,27499,27499,17015
460761.23,5262518.8,11.6,28055,1,2,0,30069,26214,20303,24285
460759.97,5262514.93,0.04,31702,1,1,0,39064,33410,28527,23432
460760.08,5262515.25,0.23,31768,1,1,0,45489,41120,35466,31023
460760.18,5262515.57,0.54,31620,1,1,0,34438,32125,31868,26692
460760.25,5262515.76,0,31800,1,1,2,16705,13878,19532,21536
460760.36,5262516.12,0,31774,1,1,2,20817,19018,21074,8819
460760.88,5262517.68,0,31604,1,1,2,24672,22102,23387,17422
460761.5,5262519.57,0.84,31712,1,1,0,13878,13621,17733,15835
460761.62,5262519.91,0,31784,1,1,2,17990,17990,19789,13397
460762.03,5262521.19,2.85,29546,1,2,0,19018,18504,20560,18130
460761.84,5262520.61,0,29690,2,2,2,21588,20046,21074,24258
460762.38,5262522.22,0.32,31600,1,1,0,15163,15677,19789,11584
460762.62,5262522.97,0.48,31551,1,1,0,14906,15420,19018,12768
460752.51,5262491.2,3.38,29533,2,3,0,22873,23130,24158,0
460755.33,5262499.87,25.17,29051,1,3,0,13878,14392,18247,0
460752.11,5262489.95,0,30558,3,3,2,23130,23130,23387,0
460755.48,5262500.31,25.31,28743,2,4,0,13878,14135,18761,0
460755.99,5262501.87,29.06,29775,1,4,0,13107,13364,17990,0
460752.21,5262490.27,0,28386,4,4,2,16191,15934,19275,0
460754.98,5262498.79,21.14,28399,3,4,0,14392,14906,18761,0
460755.69,5262500.97,26.25,28081,2,2,0,15677,16191,20303,0
460756.18,5262502.47,28.67,30106,1,2,0,14392,15163,19789,0
460752.52,5262491.2,0.89,28569,2,2,0,15163,15677,19532,0
460756.07,5262502.1,26.93,30424,1,3,0,13878,15163,20046,0
460752.57,5262491.37,0.29,29146,3,3,0,14135,15677,19789,0
460755.54,5262500.48,23.08,28350,2,3,0,14392,15677,20560,0
460752.68,5262491.68,0,29815,2,2,2,13364,14135,19018,13377
460756.32,5262502.88,26.76,29729,1,3,0,17733,18247,21331,14522
460752.81,5262492.08,0,30355,3,3,2,11822,12593,17476,9397
460755.11,5262499.15,17.43,28386,2,3,0,13878,14392,17733,11700
460756.05,5262502.04,24.2,30480,1,3,0,14135,14649,17990,16160
460755.29,5262499.71,18.06,28127,2,3,0,15677,16191,19532,14767
460753.03,5262492.74,0,30241,2,2,2,19532,19789,22873,15980
460756.3,5262502.8,24.06,30074,1,3,0,15420,16191,20560,15982
460753.17,5262493.19,0.36,29051,3,3,0,14135,15420,18761,11968
460755.71,5262500.97,20.14,29038,2,3,0,17476,18247,22102,14821
460755.81,5262501.29,19.1,27439,2,3,0,14649,15677,18761,16392
460753.37,5262493.78,0,31116,3,3,2,15934,16962,20303,19017
460756.51,5262503.45,24.42,29284,1,3,0,19275,20046,23901,14687
460757.4,5262506.17,30.01,29005,1,2,0,14649,14906,20560,10495
460753.63,5262494.57,0,31528,2,2,2,15163,15934,19789,17518
460753.77,5262494.99,0,30568,2,2,2,15934,16705,20817,16868
460753.88,5262495.35,0,31777,1,1,2,26728,26728,26985,15538
460754,5262495.71,0.12,31371,1,1,0,19275,19018,22616,13385
460754.1,5262496,0,31627,2,2,2,15420,15677,21074,11500
460754.22,5262496.36,0,31083,2,2,2,20303,18504,21845,16841
460754.44,5262497.04,0,31643,1,1,2,35723,32382,32382,21817
460754.57,5262497.43,0,31558,1,1,2,42148,39064,37779,20623
460754.91,5262498.44,0,31676,1,1,2,14906,15677,17990,11950
460755.37,5262499.85,0.55,31840,1,1,0,14135,15163,20046,10477
460755.46,5262500.11,0.21,31823,1,1,0,12850,13621,18761,8146
460755.57,5262500.45,0,31771,1,1,2,14392,14649,19532,11055
460755.67,5262500.76,0,31640,1,1,2,13878,13621,18247,12679
460755.91,5262501.47,0,31699,1,1,2,18247,17990,21331,18753
460756.05,5262501.92,0,31797,1,1,2,15677,14906,19275,13196
460756.44,5262503.1,0.36,31764,1,1,0,16705,16191,20817,11428
460756.65,5262503.73,0,31659,1,1,2,23644,20303,22616,19458
460756.87,5262504.38,0.32,31787,1,1,0,43176,38293,37008,20130
460756.95,5262504.64,0,31679,1,1,2,36494,32639,31097,24152
460757.17,5262505.29,0,32013,1,1,2,53713,49087,46774,19169
460757.47,5262506.21,0,31112,2,2,2,35980,32382,30840,22978
460761.91,5262519.87,35.06,28524,1,2,0,35980,31868,30326,28279
460762.1,5262520.44,35.7,30562,1,2,0,32639,29812,28270,32919
460757.71,5262506.92,0,30696,2,2,2,38550,34181,30840,31924
460757.79,5262507.18,0,30237,2,2,2,39835,35466,33410,25828
460762.29,5262521.02,35.53,30250,1,2,0,28784,26214,25957,27730
460762.41,5262521.37,35.63,30005,1,3,0,25957,24415,24415,27922
460762.15,5262520.58,33.37,28438,2,3,0,26214,24672,24672,29908
460762.57,5262521.85,35.89,30952,1,1,0,31611,29298,27499,31249
460762.68,5262522.17,34.73,30404,1,3,0,33667,31097,29041,31049
460762.03,5262520.18,29.52,27259,2,3,0,34695,32125,29555,30688
460762.77,5262522.46,34.78,30372,1,2,0,35209,32896,31097,32810
460762.5,5262521.62,31.93,28606,2,4,0,33924,32125,30326,29144
460762.16,5262520.58,29.01,28062,3,4,0,33667,31611,29812,29532
460762.87,5262522.77,34.57,30280,1,4,0,31354,29555,28270,29018
460758.51,5262509.36,0,28147,4,4,2,34952,32125,31097,23026
460762.38,5262521.25,29.21,28560,2,4,0,25700,24158,24158,31065
460762.33,5262521.07,27.58,29199,3,3,0,29041,28013,27756,28307
460762.41,5262521.33,27.52,29025,2,2,0,31097,30583,31354,24074
460763.09,5262523.42,32.72,29061,1,2,0,24158,23644,24415,25521
460759.18,5262511.4,0,28265,2,2,2,28013,27242,25957,30002
460762.9,5262522.83,28.31,28298,1,3,0,21331,20560,22359,25565
460759.43,5262512.16,0,28301,3,3,0,31097,31097,29812,26978
460762.01,5262520.08,21.19,29274,2,3,0,23387,22873,24158,27881
460762.07,5262520.26,20.24,28429,2,2,0,25186,23901,24415,29568
460759.87,5262513.48,0,29045,2,2,2,32639,30840,29555,30039
460760.11,5262514.21,0.58,31168,1,1,0,36494,35209,31611,22580
460760.2,5262514.49,0.26,31768,1,1,0,28784,24158,21331,26590
460760.35,5262514.94,0.55,31666,1,1,0,46517,40349,36751,31987
460760.43,5262515.17,0.36,31718,1,1,0,34695,31097,30326,30611
460760.51,5262515.41,0,31528,1,1,2,16191,13621,16705,19748
460761.25,5262517.65,0,31886,1,1,2,17476,16705,20303,14460
460761.37,5262518.04,0,31774,1,1,2,13107,13878,18504,13963
460762.39,5262521.12,3.47,30414,1,2,0,17219,17219,20303,15379
460762.24,5262520.67,0.47,31391,1,1,0,16705,16962,20046,16112
460762.42,5262521.21,0,31607,1,1,2,13364,13621,17476,8159
460762.77,5262522.27,0.82,31922,1,1,0,13364,13878,16962,16995
460762.84,5262522.49,0.29,31135,1,1,0,17219,17219,19789,16478
460762.93,5262522.76,0,31440,1,1,2,12593,13107,19532,11297
460763.12,5262523.32,0.68,31427,1,1,0,12079,13364,18247,10394
460755.63,5262499.85,25.26,30270,1,2,0,13878,14649,19018,0
460755.85,5262500.53,26.03,29569,1,3,0,15163,15934,20560,0
460755.21,5262498.56,20.66,29526,2,3,0,13621,13878,18504,0
460752.52,5262490.29,0.21,28848,3,3,0,14135,14649,18504,0
460756.13,5262501.4,27.3,29608,2,3,0,13107,13878,18761,0
460756.35,5262502.08,28.73,30037,1,3,0,12593,13621,18504,0
460752.63,5262490.63,0.22,28576,3,3,0,18504,18761,22359,0
460756.22,5262501.65,26.93,28861,2,4,0,12593,13878,18761,0
460755.73,5262500.17,23.31,28232,3,4,0,13621,14649,19532,0
460756.4,5262502.22,28.14,29648,1,4,0,12336,13621,18504,0
460752.86,5262491.34,1.22,29428,4,4,0,14392,15163,19018,0
460756.34,5262502.03,26.94,30339,1,3,0,12593,13364,18247,0
460756.49,5262502.48,27.64,30565,1,3,0,14649,14649,17733,15255
460755.23,5262498.61,17.31,27937,2,3,0,14906,15420,19275,14730
460752.95,5262491.6,0,28622,3,3,2,14392,15677,20560,13034
460753.08,5262491.99,0,29156,2,2,2,15934,16705,20817,11636
460756.38,5262502.13,24.51,28881,2,3,0,20560,20817,21845,14505
460755.76,5262500.24,19.97,28101,3,3,0,13878,14906,17990,15441
460755.92,5262500.72,20.53,27986,2,2,0,14649,15420,20817,16142
460756.5,5262502.5,25.04,30395,1,2,0,13878,14392,19789,14630
460753.46,5262493.14,0.2,29795,3,3,0,16962,17733,21588,14370
460756.08,5262501.19,19.79,27652,2,3,0,18247,19532,23901,14510
460756.78,5262503.35,24.14,29267,1,3,0,13878,15163,19532,11815
460755.09,5262498.14,10.83,28438,2,3,0,18247,19018,22359,13514
460753.82,5262494.26,0,31384,2,2,2,22359,23901,26985,17372
460755.06,5262498.04,9.67,28376,1,2,0,14392,15934,19532,15074
460753.94,5262494.61,0,31473,2,2,2,13107,13107,18504,11013
460755.07,5262498.06,7.99,29281,2,3,0,31097,29555,31868,16951
460757.86,5262506.64,30.23,29267,1,3,0,20560,19789,22359,19024
460754.19,5262495.36,0,31230,2,2,2,25186,24672,25186,17997
460755.02,5262497.93,6.77,29303,1,2,0,28784,27756,28270,19485
460754.38,5262495.95,0,31522,2,2,2,15420,15677,20817,10412
460754.5,5262496.32,0,31784,1,1,2,22359,21074,23644,14011
460754.86,5262497.4,0,31686,1,1,2,32125,27756,28270,20147
460754.96,5262497.71,0,31715,1,1,2,33153,29041,29555,17395
460755.44,5262499.15,0.62,31637,1,1,0,16705,16191,19789,10253
460755.52,5262499.41,0.19,31741,1,1,0,20817,20303,23644,10805
460755.64,5262499.76,0.25,31702,1,1,0,12850,13364,19018,9646
460755.75,5262500.08,0,31886,1,1,2,14135,14135,20817,8481
460756.33,5262501.85,0,32115,1,1,2,17476,17733,22359,9335
460756.99,5262503.84,0,31827,1,1,2,27499,22873,24158,17258
460757.13,5262504.28,0.02,31892,1,1,0,46260,40606,39321,24290
460757.7,5262505.99,0.56,31610,1,1,0,27242,25443,26214,21268
460762.17,5262519.74,34.91,29284,1,2,0,33410,30326,28527,23530
460762.34,5262520.24,35.57,30421,1,2,0,31868,29041,28270,31711
460758.19,5262507.47,0,29562,3,3,2,34438,31097,28784,32675
460762.43,5262520.52,33.71,27924,2,3,0,26471,24929,24158,25712
460762.98,5262522.19,36.13,30018,1,1,0,31097,29298,27756,29230
460762.01,5262519.21,27.24,27931,4,5,0,33924,31354,30326,31559
460762.36,5262520.27,30.27,27917,3,5,0,32896,30326,29812,31447
460762.57,5262520.93,31.9,28864,2,5,0,31097,28527,28013,31348
460762.71,5262521.35,32.07,29415,2,2,0,34438,32382,31611,32493
460763.09,5262522.52,34.02,30054,1,2,0,31611,30069,29041,29410
460762.31,5262520.11,27.32,28655,2,3,0,27242,25700,25700,26635
460762.91,5262521.95,30.73,28930,2,3,0,23901,22616,24158,25224
460763.04,5262522.35,31.18,29880,1,2,0,22616,21588,22359,26293
460763.29,5262523.08,27.84,28389,2,2,0,29812,29041,29041,24008
460760.03,5262513.06,0,29431,3,3,2,32382,30069,28784,29960
460763.37,5262523.33,27.5,29110,2,3,0,23387,22873,23387,27377
460760.16,5262513.44,0.3,30709,2,2,0,28013,25700,26471,27439
460760.28,5262513.81,0.75,29448,2,2,0,29555,27499,26728,25999
460760.56,5262514.66,0,31551,1,1,2,20560,16705,17476,33135
460760.72,5262515.14,0.41,31876,1,1,0,17219,14135,16705,21442
460761.36,5262517.1,1.52,30821,1,2,0,31097,29041,28784,10054
460761.19,5262516.58,0,31220,2,2,2,28013,26214,26728,9888
460762.19,5262519.59,0.5,31558,1,1,0,14649,14649,16962,15588
460762.32,5262520.01,0.74,30572,2,2,0,16191,16705,20560,19307
460762.58,5262520.8,2.66,30024,1,2,0,15420,15934,20046,18856
460762.74,5262521.28,1.99,30385,1,2,0,14649,15677,20303,15629
460762.85,5262521.62,1.78,29215,1,2,0,15934,15934,19532,12565
460762.61,5262520.87,0,30962,2,2,2,16448,16448,20046,12256
460762.74,5262521.26,0,31764,1,1,2,18247,17990,20303,9310
460763.03,5262522.16,0.53,31853,1,1,0,14392,14906,19018,17511
460763.15,5262522.5,0.22,31502,1,1,0,12593,12850,17990,12185
460763.43,5262523.36,0,31594,1,1,2,13107,13107,17219,12433
460752.77,5262490.25,0.93,29471,3,3,0,13621,14135,17990,0
460755.5,5262498.64,21.74,29431,2,3,0,15420,16191,21074,0
460755.98,5262500.12,25.82,29585,1,3,0,14906,15677,20560,0
460752.77,5262490.24,0,28615,3,3,2,17990,18247,22616,0
460756.15,5262500.62,26.32,29874,1,3,0,12850,13364,18761,0
460755.48,5262498.58,20.71,30362,2,3,0,21588,22359,27242,0
460752.87,5262490.56,0,28442,3,3,2,14649,15163,19018,0
460756,5262500.16,24.17,28157,2,3,0,12079,13621,18504,0
460756.41,5262501.41,27.29,29703,1,3,0,12079,13364,18504,0
460756.22,5262500.84,25,29241,2,3,0,13878,15163,20046,0
460756.49,5262501.66,27,29222,1,3,0,13621,14649,19532,0
460755.42,5262498.38,18.32,28396,3,3,0,13621,14906,19789,0
460755.42,5262498.36,17.38,28422,2,2,0,12336,13107,18247,0
460756.8,5262502.59,27.61,30293,1,1,0,15934,16448,20303,18691
460755.98,5262500.07,20.43,28121,3,3,0,19789,19789,19789,19363
460756.22,5262500.83,22.33,28707,2,3,0,19789,19789,20046,19770
460756.07,5262500.34,20.39,29048,2,2,0,20303,21331,23130,15491
460753.59,5262492.74,0,29153,2,2,2,15420,15934,19789,20537
460756.32,5262501.11,20.36,29910,1,2,0,12079,13364,18504,15360
460753.73,5262493.16,0,29015,2,2,2,16448,17733,22359,15078
460755.36,5262498.16,11.75,28484,3,4,0,13621,15163,19275,15505
460757.01,5262503.23,24.77,30395,1,4,0,10794,12593,17476,14049
460753.85,5262493.52,0,28327,4,4,2,16448,17219,21331,13952
460755.35,5262498.13,10.81,30473,1,2,0,14906,15677,20817,10276
460755.32,5262498.01,9.63,30454,1,2,0,14135,15420,20303,10836
460755.31,5262497.98,8.75,30398,1,2,0,16705,16448,21845,13705
460755.29,5262497.93,7.5,30477,1,2,0,26214,24929,26471,20615
460754.35,5262495.03,0,30290,2,2,2,33667,31868,33410,20299
460754.47,5262495.41,0,30110,2,2,2,33153,31868,33410,17752
460755.29,5262497.93,6.57,30709,1,2,0,28527,27242,28784,16289
460755.26,5262497.83,5.56,30758,1,2,0,23901,23387,26985,10825
460755.26,5262497.81,4.69,30804,1,2,0,14906,14392,19789,13609
460755.25,5262497.79,3.69,30588,1,1,0,24672,23387,25443,24746
460754.89,5262496.67,0.01,28327,2,2,0,25957,25443,26214,24717
460755.23,5262497.72,2.65,30529,1,2,0,25186,24929,26214,23812
460755.22,5262497.68,1.64,29926,1,1,0,18761,17990,22359,17556
460755.19,5262497.58,0.51,30398,1,1,0,17219,16962,19275,21263
460755.38,5262498.15,0,31771,1,1,2,14392,14649,19532,10623
460755.48,5262498.46,0.02,31650,1,1,0,19018,19018,22616,10845
460755.69,5262499.1,1.25,31371,1,1,0,16705,16448,20817,10699
460755.68,5262499.06,0.2,31804,1,1,0,15163,15163,19532,11619
460755.78,5262499.35,0,31604,1,1,2,21588,21845,26214,10284
460755.86,5262499.62,0,31512,1,1,2,13364,13107,18247,9494
460756.09,5262500.3,0,31545,1,1,2,14392,14649,20046,8549
460756.21,5262500.66,0,31594,1,1,2,18504,19018,22873,9559
460756.33,5262501.02,0,31954,1,1,2,21588,22102,25443,9991
460756.82,5262502.52,0.14,31607,1,1,0,12593,13107,18504,11858
460757.49,5262504.53,0.21,31361,1,1,0,51143,46517,43947,28927
460757.67,5262505.09,0,31892,1,1,2,49344,44204,41120,26266
460757.84,5262505.61,0.17,31764,1,1,0,33153,30840,32125,20505
460762.46,5262519.79,35.15,27931,1,2,0,41377,37522,35980,24764
460758.24,5262506.81,0.98,29480,2,2,0,34952,32382,30069,33497
460758.25,5262506.84,0.12,30077,2,2,0,34695,32125,29555,32609
460758.35,5262507.14,0,29284,2,2,2,30840,28270,27242,29292
460762.68,5262520.44,31.56,28474,2,2,0,29555,27499,26471,31252
460762.75,5262520.66,31.05,27649,2,3,0,32896,30840,30069,29063
460762.89,5262521.07,31.38,28180,2,3,0,33153,31354,29812,28344
460763,5262521.41,31.26,28435,2,3,0,30583,29298,28013,23294
460763.07,5262521.62,30.82,28409,2,2,0,31868,29298,29041,23639
460762.66,5262520.33,26.82,28576,3,4,0,27242,26214,25957,24437
460763.47,5262522.84,33.14,30100,1,4,0,28527,27756,26471,22696
460763.58,5262523.17,33.24,28101,1,3,0,28270,27242,26728,23114
460759.51,5262510.67,0.53,28861,3,3,0,27756,26728,26214,27699
460762.11,5262518.66,20.84,27793,4,5,0,28784,27756,28013,23998
460762.64,5262520.27,24.96,27970,3,5,0,29555,28527,28270,23460
460759.57,5262510.85,0,27718,5,5,2,31097,30583,31097,25622
460763.33,5262522.4,30.33,28887,2,5,0,31354,30583,29555,25491
460763.56,5262523.08,30.54,28275,2,2,0,30326,28527,26985,30676
460762.95,5262521.22,24.6,27852,3,4,0,22616,22359,21845,20595
460763.42,5262522.65,28.3,28753,2,4,0,24415,24158,23387,20830
460762.54,5262519.94,21.56,28455,4,4,0,22102,21845,21845,19861
460763.51,5262522.94,28,27570,2,2,0,27756,26728,26214,24347
460763.61,5262523.24,28.02,29199,2,2,0,24929,24672,25700,27855
460760.38,5262513.31,0.75,29828,2,2,0,28784,27242,26985,27359
460760.4,5262513.38,0,30621,2,2,2,27499,25443,24415,27123
460760.64,5262514.08,1.1,29929,2,2,0,32382,28527,26471,25274
460760.61,5262513.98,0,31912,1,1,2,35980,31611,27499,23658
460761.04,5262515.31,0,31381,1,1,2,46003,38807,33410,25825
460761.2,5262515.79,0.08,31607,1,1,0,40349,35466,31097,29737
460761.32,5262516.16,0.1,31676,1,1,0,46003,41891,35980,19759
460761.49,5262516.68,1.01,31964,1,1,0,40349,35980,29812,16646
460761.57,5262516.89,0.03,31653,1,1,0,16448,13621,15677,10421
460762.27,5262519.04,0.45,31666,1,1,0,15677,14906,19018,12353
460762.37,5262519.32,0.61,31764,1,1,0,15934,15420,18247,13706
460762.63,5262520.13,0.69,31479,1,1,0,12079,13364,18504,13662
460762.95,5262521.09,2.19,30919,1,2,0,11822,13107,17990,12079
460762.92,5262521,0.23,31637,1,1,0,15677,15420,18761,16080
460763.05,5262521.38,0.23,31705,1,1,0,19532,19275,20817,12643
460763.17,5262521.76,0.19,31355,1,1,0,14135,14135,17990,12112
460763.46,5262522.62,0,31070,1,1,2,9509,10794,17219,10434
460752.94,5262489.91,0,30116,3,3,2,13621,14392,18761,0
460756.53,5262500.92,27.94,29759,1,3,0,18247,19275,24158,0
460753.05,5262490.23,0,30958,2,2,2,16191,16962,21331,0
460753.15,5262490.54,0,28763,3,3,2,12850,13621,18247,0
460753.28,5262490.93,0.28,29949,3,3,0,15677,16448,21331,0
460756.49,5262500.8,25.17,29487,2,3,0,13107,13878,19018,0
460756.97,5262502.26,27.8,30703,1,2,0,14649,15677,20560,0
460753.38,5262491.25,0,28973,2,2,2,12850,13621,18504,0
460757.05,5262502.49,27.33,30037,1,2,0,14392,15163,18761,19935
460755.88,5262498.91,18.51,28779,2,2,0,15420,16191,19789,19850
460756.51,5262500.83,22.56,28556,2,2,0,23130,23130,23901,21980
460757.16,5262502.83,27.4,30237,1,2,0,22616,22873,23644,22837
460757.18,5262502.88,24.88,28481,1,3,0,12850,14135,19789,13392
460754,5262493.12,0,29969,3,3,2,12079,13107,17990,15651
460756.57,5262501.01,20.27,29972,2,3,0,10794,12336,17733,14621
460754.11,5262493.46,0,30408,3,3,2,13621,15163,19532,15336
460754.25,5262493.86,0,31260,2,2,2,14392,14906,20303,9723
460757.34,5262503.35,24.48,29811,1,2,0,13621,14649,21331,10525
460754.63,5262495.04,0,31689,1,1,2,26985,25443,26728,17959
460754.78,5262495.47,0.39,31528,1,1,0,22873,22102,24672,17435
460754.87,5262495.75,0,31541,1,1,2,17733,17476,21588,12072
460754.97,5262496.06,0,31420,1,1,2,14135,13621,19275,17546
460755.46,5262497.55,3.25,28491,1,2,0,15420,14649,18247,19382
460755.48,5262497.6,2.52,29395,1,2,0,26728,26985,30840,19013
460755.29,5262497.03,0,29608,2,2,2,12079,12336,18504,11224
460755.47,5262497.59,1.63,29163,1,2,0,11565,12079,18247,10624
460755.5,5262497.65,0,31604,1,1,2,14392,14392,18761,12166
460755.65,5262498.1,0.42,32026,1,1,0,12850,13364,18761,9772
460755.9,5262498.88,0.94,30182,1,2,0,15677,15934,20817,11223
460755.83,5262498.65,0.48,31338,2,2,0,15934,16191,21074,11193
460755.89,5262498.85,0,31578,1,1,2,14392,14906,20303,10358
460756.12,5262499.54,0,31787,1,1,2,25186,24158,26471,8656
460756.35,5262500.23,0,31696,1,1,2,15934,16191,20817,8990
460757.06,5262502.39,0,31705,1,1,2,12593,13364,20046,8878
460757.41,5262503.44,0,31686,1,1,2,32639,29555,32125,15364
460757.64,5262504.15,0,31869,1,1,2,46260,41377,39578,24084
460757.76,5262504.51,0.12,31502,1,1,0,46517,41377,39578,28517
460758.06,5262505.41,0,31401,1,1,2,23901,22616,25186,26726
460758.26,5262506.01,0.83,31650,1,1,0,18504,17733,19789,24129
460762.87,5262520.16,35.21,30975,1,2,0,31354,28527,27499,31222
460758.42,5262506.5,0.49,28717,2,2,0,33667,30840,29041,31099
460758.5,5262506.76,0,28160,2,2,2,32382,30069,28270,28530
460763.06,5262520.75,35.94,30729,1,2,0,30583,28270,26471,31031
460763.11,5262520.9,34.5,28812,1,3,0,29298,26728,26214,30169
460762.9,5262520.24,32.76,28320,2,3,0,29812,27242,26728,29450
460763.26,5262521.36,34.62,30041,1,4,0,25957,24415,24929,29299
460762.48,5262518.94,28.64,28602,3,4,0,24929,23387,23644,31212
460758.81,5262507.67,0,28589,4,4,2,31868,29298,27499,31409
460762.84,5262520.05,31.54,28429,2,4,0,24929,23387,23901,30322
460763.37,5262521.68,35.04,30434,1,2,0,28013,26728,25957,30047
460762.49,5262518.98,27.85,28255,2,2,0,28270,26214,25443,30198
460763.14,5262520.98,32.08,28635,2,3,0,29555,28013,26471,29444
460763.51,5262522.1,34.14,29900,1,3,0,28527,27242,26471,29832
460763.15,5262520.99,31.28,28157,2,3,0,30069,28784,27499,30781
460759.21,5262508.9,0,28461,3,3,2,34695,32382,30326,32690
460763.66,5262522.55,34.36,30834,1,2,0,30069,28784,28013,29337
460759.37,5262509.38,0,28147,2,2,0,31354,29555,28527,29735
460762.8,5262519.9,26.52,28373,2,2,0,30326,28784,28270,25019
460763.5,5262522.05,31.37,28533,2,2,0,34695,33667,30840,26078
460763.76,5262522.87,33.25,30621,1,2,0,34181,33153,30326,26912
460762.87,5262520.11,25.39,28294,3,4,0,30069,29041,28270,24639
460759.87,5262510.89,0,29929,2,2,2,25186,24672,25957,24783
460760.57,5262513.01,0,29051,2,2,2,27242,26471,26728,26943
460760.75,5262513.57,0.85,29389,2,2,0,28784,27499,27756,27896
460761.35,5262515.38,0.2,31142,2,2,0,51400,45746,40092,26541
460761.7,5262516.45,0.44,31732,1,1,0,40863,37008,31611,34576
460761.83,5262516.85,0.66,31777,1,1,0,46774,42662,37779,19034
460761.91,5262517.06,0.13,31581,1,1,0,36751,33410,33410,10466
460762,5262517.35,0,31787,1,1,2,21845,19789,21331,11993
460762.55,5262519.03,0.74,31453,1,1,0,19532,18504,22102,12915
460762.67,5262519.4,0.88,31646,1,1,0,18247,17733,20560,12673
460762.82,5262519.84,0,31935,1,1,2,10280,12079,16962,12682
460763.32,5262521.35,2.05,28569,1,2,0,11822,12850,17733,12800
460763.15,5262520.82,0,31692,1,1,2,14135,14906,19532,13397
460763.49,5262521.85,0,31427,1,1,2,11308,12336,17476,15548
460763.65,5262522.34,0.17,31119,1,1,0,10794,11822,17990,9358
460753.15,5262489.51,0,30454,4,4,2,14649,15934,20817,0
460756.66,5262500.25,26.2,29084,2,4,0,17476,17733,20046,0
460756.91,5262501.02,28.06,29330,1,4,0,19789,19789,22359,0
460755.32,5262496.15,15.41,28881,3,4,0,14135,15677,19018,0
460756.99,5262501.28,27.95,29133,1,2,0,16448,16962,21845,0
460757.13,5262501.69,28.05,30277,1,3,0,11565,12850,17990,0
460753.52,5262490.61,0,30011,3,3,2,13621,14906,19789,0
460756.64,5262500.2,24.41,28556,2,3,0,12079,13364,18504,0
460756.77,5262500.59,24.43,27835,2,3,0,12593,13878,18761,0
460757.21,5262501.94,27.84,30719,1,3,0,13364,14649,19532,0
460756.06,5262498.4,17.73,27747,2,3,0,14135,15420,20303,15888
460753.76,5262491.33,0.06,29575,3,3,0,13364,13621,18761,16192
460756.75,5262500.53,22.37,28900,2,2,0,16448,16962,20560,20311
460757.25,5262502.05,24.45,29153,1,3,0,13364,14135,18761,13182
460757.08,5262501.52,23.07,28674,2,3,0,13621,14392,18761,13237
460754.1,5262492.39,0,28917,3,3,2,14392,15163,19532,15207
460754.23,5262492.77,0,29667,3,3,2,11051,12336,17990,13255
460757.39,5262502.47,24.64,28307,1,3,0,11308,12593,17733,11769
460757.01,5262501.31,21.75,29471,2,3,0,11565,12850,17990,11227
460757.54,5262502.91,24.98,30080,1,3,0,13364,13878,19275,13484
460754.39,5262493.25,0,29104,3,3,2,11051,12593,17476,15008
460757,5262501.27,20.7,29841,2,3,0,12593,13878,19018,13790
460754.48,5262493.54,0,30368,2,2,2,11565,13364,18247,11251
460757.16,5262501.74,21.08,30034,1,2,0,13878,14392,19789,10984
460757.4,5262502.48,22.08,29582,1,2,0,11308,12593,17990,9633
460754.61,5262493.93,0,30644,2,2,2,9766,11051,17219,10211
