"X","Y","Z","Intensity","ReturnNumber","NumberOfReturns","Classification","R","G","B","NIR"
460684.53,5262518.16,34.17,30834,1,1,0,27242,25957,24929,30805
460684.75,5262518.86,34.1,30883,1,1,0,27242,25957,24929,32200
460684.17,5262517.01,29.29,28796,2,3,0,29555,27242,25443,32188
460679.8,5262503.15,0.34,29163,3,3,0,28270,26985,25957,34038
460680.08,5262504.01,1.06,28222,3,3,0,23901,23901,23901,33408
460684.96,5262519.51,33.56,30110,2,3,0,32125,30326,28784,31456
460685.11,5262519.98,34.5,29500,1,3,0,32382,30583,29041,31016
460685.25,5262520.41,34.55,30876,1,1,0,31097,28784,26985,32932
460680.19,5262504.35,0,28219,3,3,2,28270,26471,23901,33421
460684.75,5262518.83,30.52,28674,2,3,0,34438,31611,29041,34462
460685.34,5262520.71,34.25,30260,1,3,0,34181,31611,28527,34265
460683.88,5262516.05,23.96,27911,3,3,0,33153,30583,28270,33529
460685.26,5262520.43,32.85,28455,1,3,0,33924,31354,28784,30519
460683.93,5262516.23,23.52,29179,1,2,0,32125,30583,26985,29766
460685.08,5262519.87,29.95,30781,1,1,0,29812,28784,28013,19325
460680.9,5262506.58,1.33,28904,2,2,0,26214,25957,24672,29554
460680.81,5262506.31,0,30572,3,3,2,30583,30326,29041,29905
460685.29,5262520.52,29.69,29346,1,3,0,12850,14135,17990,17657
460685.14,5262520.03,28.63,28746,2,3,0,12593,14135,17990,17663
460684.3,5262517.36,22.14,29104,2,3,0,10794,12079,17733,15113
460681.16,5262507.4,1.31,29215,3,3,0,23387,23901,23901,29914
460685.26,5262520.41,28.57,28648,1,3,0,12079,12593,17990,15523
460684.25,5262517.2,20.94,28743,2,2,0,11822,13107,18247,13144
460685.29,5262520.51,27.9,30981,1,2,0,11308,12850,17733,14357
460681.24,5262507.63,0,29428,2,2,2,14649,14906,19532,17839
460685.39,5262520.82,27.66,30316,1,2,0,14392,15420,18504,16478
460685.71,5262521.82,28.62,29457,1,2,0,14392,14649,17990,18223
460685.54,5262521.29,27.6,29395,2,2,0,14135,14392,17990,18897
460686.97,5262525.83,35.97,30912,1,1,0,31354,30583,28270,20119
460686.6,5262524.62,32.74,29366,2,2,0,24929,24672,23644,24837
460687.29,5262526.81,36.11,30726,1,1,0,17733,17733,18504,28475
460686.23,5262523.44,27.88,28107,3,4,0,19275,18761,20303,23788
460685.55,5262521.28,23.17,28206,4,4,0,16448,16191,17990,21538
460687.01,5262525.91,32.61,28756,2,4,0,26214,25700,26471,25184
460685.67,5262521.65,22.97,28448,3,4,0,20303,20046,21845,16288
460682.23,5262510.75,0.51,28799,4,4,0,17733,17219,20046,18341
460686.86,5262525.42,30.55,29212,2,4,0,18761,18504,18247,27397
460685.77,5262521.97,22.68,29359,3,4,0,17990,17990,20560,17745
460686.95,5262525.72,30.39,29107,2,4,0,17733,17219,20303,17767
460686.13,5262523.12,24.47,29464,2,4,0,19532,19532,22102,17658
460685.83,5262522.16,22.16,28088,3,4,0,18247,18247,20817,17152
460682.47,5262511.5,0.26,30090,4,4,0,13878,14392,19532,12967
460687.31,5262526.85,31.85,28661,1,4,0,18504,18504,21588,15217
460686.23,5262523.42,24.32,27714,1,4,0,13621,14392,18761,14553
460685.94,5262522.51,22.36,30054,2,4,0,13107,13878,18761,14546
460686.07,5262522.9,22.26,30074,1,2,0,12850,14135,19018,11151
460686.17,5262523.2,21.97,28455,1,2,0,15163,15677,19532,10822
460683.24,5262513.92,1.94,29379,2,3,0,18504,18247,21845,13225
460682.98,5262513.08,0,31174,3,3,2,18504,18247,21845,13312
460685.97,5262522.57,19.86,28943,1,3,0,17476,16962,20303,12818
460683.11,5262513.48,0,31489,1,1,2,17476,16962,20303,13818
460686.31,5262523.63,20.34,30037,1,2,0,16191,15420,17476,15262
460686.41,5262523.96,20.06,28914,1,3,0,24415,23130,24929,14253
460683.79,5262515.63,2.78,28494,2,3,0,17476,17733,20817,14255
460683.79,5262515.62,1.91,28465,1,3,0,19275,18504,21331,16396
460683.62,5262515.08,0.95,28504,2,3,0,19275,18504,21588,17067
460683.79,5262515.6,0,30309,2,2,2,18761,18247,21074,15397
460684.23,5262516.99,0.82,31830,1,1,0,17990,17476,20303,14990
460684.4,5262517.52,0,31325,1,1,2,21845,21074,23130,12216
460684.67,5262518.38,0.35,29133,2,2,0,16448,16191,20046,12311
460684.88,5262519.02,0,30686,2,2,2,9766,11051,16962,8201
460685.04,5262519.51,0,29621,4,4,2,10794,11051,16448,8524
460685.3,5262520.32,0,29084,3,3,2,19532,18504,23387,12814
460686.11,5262522.85,0,28062,3,3,2,16191,16191,18761,18844
460677.49,5262495.15,0,31292,1,1,2,32125,28784,26471,0
460677.72,5262495.86,0.56,31342,1,1,0,25700,23644,23130,0
460677.78,5262496.06,0,31394,1,1,2,22359,19018,17476,0
460678.13,5262497.13,1.07,31253,1,1,0,28270,25700,24672,0
460678.28,5262497.63,1.06,31401,1,1,0,24158,21845,23130,21310
460678.26,5262497.53,0,31761,1,1,2,19532,17990,19789,14729
460678.4,5262497.97,0,31220,1,1,2,17219,16191,18761,14606
460678.74,5262499.05,1.52,30339,2,2,0,25957,24415,24929,18332
460679.25,5262500.66,4.68,28763,1,2,0,24158,22616,23644,16031
460679.46,5262501.32,5.21,29471,1,2,0,24929,23130,23130,27946
460678.77,5262499.14,0.89,30198,2,2,0,25957,24415,24158,27724
460683.66,5262514.63,32.72,28841,1,2,0,25700,24672,24158,29017
460678.77,5262499.15,0,30319,2,2,2,26471,25186,24415,32210
460683.76,5262514.94,32.62,30480,1,2,0,28784,26985,25957,30357
460679.13,5262500.26,0.5,31181,1,1,0,25957,23901,23387,31875
460683.46,5262514,29.03,30231,1,2,0,26214,24158,23644,26608
460679.18,5262500.41,0,28891,2,2,2,28527,26471,24929,29128
460683.9,5262515.38,30.72,29454,1,3,0,21074,20303,21588,23248
460679.34,5262500.93,0.05,29382,3,3,0,28013,25957,25186,23381
460683.57,5262514.35,28.73,29539,2,3,0,21588,20303,21331,23302
460684.53,5262517.38,33.73,30375,1,3,0,28784,26985,26985,28104
460684.05,5262515.85,30.76,28320,2,3,0,28013,25443,24929,29035
460679.51,5262501.46,0.25,28832,3,3,0,22616,22102,23130,28642
460684.84,5262518.35,34.13,30755,1,1,0,25700,24415,23387,34498
460684.22,5262516.38,29.41,28812,2,2,0,27499,26471,25700,32978
460684.95,5262518.67,33.99,30362,1,2,0,26471,25443,24672,33910
460684.46,5262517.12,29.79,29254,2,2,0,29555,27242,25443,31390
460685.06,5262519.04,33.94,30762,1,2,0,28527,26214,24415,31529
460685.13,5262519.25,33.4,29389,2,5,0,30069,27756,25700,32658
460680.97,5262506.04,5.88,28491,4,5,0,23901,23644,23387,32651
460685.34,5262519.91,34.63,28016,1,5,0,29298,26985,25186,32447
460684.75,5262518.05,30.99,27894,3,5,0,31354,28784,26471,32476
460684.78,5262518.12,29.46,28789,2,2,0,30069,27756,25700,35352
460685.38,5262520.03,32.45,28668,2,3,0,33410,31097,28527,33836
460685.63,5262520.8,33.91,28592,1,3,0,33924,31354,28784,33625
460685.04,5262518.96,30.25,29657,3,3,0,33153,30840,28527,34301
460681.27,5262506.96,4.31,27845,2,2,0,29812,28013,25957,31469
460685.26,5262519.62,29.74,29412,2,3,0,31354,29555,28013,27518
460685.88,5262521.6,33.76,28628,1,3,0,33153,31611,30326,24833
460681.09,5262506.41,2.2,29520,3,3,0,28013,27242,25957,30938
460685.44,5262520.18,30.13,30696,1,2,0,22102,22102,21074,23790
460681.2,5262506.74,1.98,28884,2,2,0,26214,25957,24672,32284
460681.03,5262506.2,0,29815,3,3,2,27499,27242,25957,34464
460681.26,5262506.92,1.55,28674,2,3,0,26985,26728,25443,34965
460685.42,5262520.12,28.24,28560,2,4,0,10794,12079,16962,15434
460685.64,5262520.81,29.53,29149,1,4,0,11051,12336,17476,15809
460685.49,5262520.33,27.68,31079,1,3,0,11565,13107,17990,13441
460685.29,5262519.71,26.33,28923,2,3,0,11822,13107,17990,13313
460681.44,5262507.5,0.01,28284,2,2,0,15163,15677,19018,15784
460685.51,5262520.39,27.08,30011,1,2,0,13621,14392,18247,15183
460686.6,5262523.85,33.34,28242,1,4,0,12850,13621,17733,17293
460685.57,5262520.59,26.42,29867,3,4,0,12850,13621,17990,17622
460681.6,5262507.99,0,29064,4,4,2,12850,13621,17733,16030
460685.78,5262521.24,27.75,28622,2,4,0,12850,13621,17990,17930
460686.72,5262524.2,33.13,27662,2,2,0,21331,20817,21331,29503
460687.19,5262525.71,35.77,30686,1,2,0,22102,21588,21331,26905
460687.29,5262526.02,35.58,30503,1,2,0,29555,29298,28013,23865
460686.79,5262524.44,32.67,27613,2,2,0,24672,24415,23901,26213
460687.41,5262526.4,35.47,30572,1,1,0,16448,15934,18761,21909
460686.19,5262522.52,27.07,28035,2,2,0,14649,14135,17476,20589
460687.71,5262527.34,36.59,29867,1,2,0,18247,17733,20303,25542
460685.81,5262521.29,23.46,28943,4,4,0,16962,16962,19789,17311
460687.25,5262525.86,32.61,30067,3,4,0,17733,17476,19275,24835
460687.48,5262526.61,34.25,28176,2,4,0,19532,19275,20817,24067
460682.56,5262510.97,0.17,29359,3,3,0,21331,21074,24929,16484
460686.2,5262522.53,24.44,28953,1,3,0,17476,17476,19789,18134
460687.53,5262526.74,31.94,28560,1,4,0,21331,21331,23644,16278
460686.36,5262523.02,24.61,29261,2,4,0,17219,17219,20046,17079
460686.12,5262522.26,23.07,28347,3,4,0,16962,16962,20046,17099
460686.48,5262523.4,24.57,28153,1,3,0,12850,12850,19018,14369
460686.13,5262522.28,22.23,29500,2,3,0,12850,12850,19018,13752
460686.26,5262522.7,22.18,29418,1,2,0,12079,13364,18504,12679
460682.94,5262512.17,0.15,31145,2,2,0,13878,14649,19789,12264
460686.4,5262523.13,22.3,28343,1,3,0,12593,13364,18247,12431
460683.06,5262512.54,0,30896,3,3,2,14649,15420,20303,13225
460683.46,5262513.82,2.05,30129,2,3,0,15420,15420,19018,14020
460686.24,5262522.62,20.23,30224,1,3,0,16705,16191,19789,12019
460686.52,5262523.52,20.32,30041,1,2,0,22616,21845,24415,14728
460683.58,5262514.16,0,30886,2,2,2,14906,15420,19275,14858
460683.72,5262514.61,0,31555,1,1,2,17733,18247,21588,18916
460686.88,5262524.61,19.51,28812,1,2,0,18247,17733,21074,14445
460684.01,5262515.51,0,29074,2,2,2,17476,16962,19275,14087
460684.13,5262515.88,0.75,30391,1,2,0,17219,16705,19275,14365
460684.43,5262516.82,1.09,31669,1,1,0,14649,14649,19018,12098
460684.5,5262517.06,0.53,31578,1,1,0,17990,17476,20303,13479
460684.58,5262517.28,0.06,31365,1,1,0,19018,18761,22359,12534
460684.83,5262518.09,0.2,29533,2,2,0,18504,17990,22359,11686
460684.94,5262518.43,0,29752,2,2,2,14392,14906,20560,8378
460685.49,5262520.14,0,28104,3,3,2,22616,21845,24672,11508
460685.91,5262521.46,0,29303,3,3,2,13364,13878,17476,12584
460686.29,5262522.64,0,28707,3,3,2,13878,14392,17990,15972
460686.45,5262523.15,1.18,28779,2,3,0,13878,14135,17733,17060
460686.56,5262523.48,0,28491,3,3,2,31611,31097,31354,20132
460686.98,5262524.81,0.53,28425,6,6,0,16191,16705,21331,14951
460677.98,5262495.71,0.57,31496,1,1,0,32382,28527,25186,0
460678.08,5262496.03,0.27,31296,1,1,0,32639,27756,24415,0
460678.37,5262496.95,0.77,31247,1,1,0,19275,18761,19018,0
460678.48,5262497.29,0.58,31260,1,1,0,16962,15677,18504,19253
460679.12,5262499.31,2.39,27904,2,3,0,26214,25700,24672,22947
460679.65,5262500.97,5.82,29241,1,3,0,25957,25443,25700,17980
460678.83,5262498.37,0.32,28966,3,3,0,25700,24929,23387,27414
460678.96,5262498.79,0.57,28422,2,2,0,25957,24672,23901,29258
460683.91,5262514.48,32.78,30516,1,2,0,24672,23130,23644,28480
460679.09,5262499.17,0.47,28812,2,2,0,24929,23644,22873,28981
460679.32,5262499.89,0,30506,2,2,2,27242,25700,25700,27681
460683.75,5262513.95,29.26,29176,1,2,0,31611,29041,28784,25599
460679.57,5262500.67,0,30418,1,1,2,31354,30326,30326,26898
460679.7,5262501.11,0,30588,2,2,2,15934,15163,17990,21705
460684.75,5262517.11,33.74,28789,1,2,0,34695,31868,31097,26254
460681.43,5262506.54,7.23,27927,3,3,0,22359,21331,20560,31422
460684.84,5262517.36,29.88,27573,2,3,0,34952,32896,31354,30665
460685.38,5262519.08,33.37,29349,1,3,0,31097,28527,26471,30408
460685.2,5262518.48,29.56,29723,2,3,0,28013,26214,24158,32597
460685.9,5262520.69,34,29441,1,3,0,31354,29298,27242,34605
460681.4,5262506.43,4.32,28566,3,3,0,30069,29041,27242,32673
460685.67,5262519.95,29.85,29248,2,3,0,25186,24929,23901,27864
460681.47,5262506.63,2.02,28966,3,3,0,25700,24929,23901,32594
460681.43,5262506.52,0.96,29739,2,2,0,24929,24158,23644,32542
460686.36,5262522.15,33.49,29143,1,2,0,20046,20046,20560,18212
460681.59,5262507.01,1.17,30254,2,2,0,27242,25186,25186,30759
460685.88,5262520.62,29.48,29294,1,2,0,14135,15163,17733,15202
460685.73,5262520.13,27.57,30480,2,2,0,14649,15934,18761,14688
460686.19,5262521.59,30.43,29094,1,2,0,12850,14392,17990,12952
460685.75,5262520.18,26.89,29923,1,3,0,13878,14649,18761,14461
460685.67,5262519.93,26.35,29965,2,3,0,13878,14649,18504,14349
460685.82,5262520.41,26.41,29615,2,4,0,13364,14392,18247,16060
460684.92,5262517.55,20.59,28569,3,4,0,13878,15163,18761,15616
460684.99,5262517.76,20.12,27875,2,2,0,13364,13878,18247,16025
460687.39,5262525.38,35.53,30041,1,2,0,17219,16705,20046,24393
460687.54,5262525.84,35.56,30581,1,2,0,26214,25700,25957,28375
460686.37,5262522.14,28.21,27718,2,2,0,16962,16962,17476,26305
460687.63,5262526.13,35.31,30837,1,1,0,22616,22102,23644,19624
460687.78,5262526.59,35.29,29582,1,3,0,15420,14906,18247,19921
460687.62,5262526.09,34.3,29575,2,3,0,14906,14649,17733,18944
460687.31,5262525.11,32.37,27911,3,3,0,14135,14135,16705,17479
460686.66,5262523.04,27.62,28202,3,4,0,17476,17476,20560,17281
460687.47,5262525.61,32.48,28763,2,4,0,16962,16962,20046,18868
460687.78,5262526.59,34.39,28733,1,4,0,16962,16705,19789,21724
460686.02,5262521.01,23.2,29343,4,4,0,19789,19789,21845,18266
460687.62,5262526.07,32.49,29412,2,3,0,20303,20560,22102,18883
460687.87,5262526.87,34.06,28294,1,3,0,19018,19275,20560,19822
460687.36,5262525.26,30.89,28019,3,3,0,21588,21845,23644,17571
460686.49,5262522.48,24.62,28379,2,4,0,16705,16191,19018,18335
460686.38,5262522.11,22.76,28075,2,3,0,15677,15934,20046,14926
460683.11,5262511.73,0.39,30614,3,3,0,13621,14392,18761,13093
460686.76,5262523.33,24.57,29844,1,3,0,12593,13364,18247,12495
460686.59,5262522.77,22.52,28848,1,3,0,12336,12850,18247,11321
460683.34,5262512.46,0.13,30595,2,2,0,14906,15677,20046,14552
460686.41,5262522.19,20.35,30257,1,2,0,13364,13878,19275,10514
460686.5,5262522.48,20.31,29064,2,3,0,17476,17733,22102,12483
460686.91,5262523.77,23.03,29579,1,3,0,16705,16962,21588,12501
460683.83,5262514.02,1.78,31414,2,3,0,19275,19789,23644,13472
460683.57,5262513.17,0,28127,3,3,2,15420,15934,19789,14034
460686.63,5262522.89,20.26,29153,1,3,0,18247,17733,21074,12944
460683.69,5262513.55,0,30526,2,2,2,12336,12850,16705,13628
460683.92,5262514.27,0.75,30447,3,3,0,16705,17219,20560,13440
460686.87,5262523.62,20.15,28383,2,3,0,19532,19018,22616,14056
460687.22,5262524.74,22.03,28517,1,3,0,20046,19532,23130,13913
460683.94,5262514.33,0,31152,2,2,2,13878,14392,18504,15055
460687.04,5262524.17,20.24,28003,1,2,0,17219,17733,20817,15746
460687.17,5262524.58,20.02,29231,1,2,0,22359,21845,24672,15198
460684.08,5262514.77,0,30578,2,2,2,19532,19275,21845,18004
460687.18,5262524.62,19.29,29444,1,3,0,21331,19275,21588,17456
460684.36,5262515.65,0.91,29307,2,3,0,27756,26214,26985,14223
460684.52,5262516.16,1.19,31394,1,1,0,34438,33410,34438,10431
460684.75,5262516.89,0.82,30929,2,2,0,20817,20303,23644,11766
460685.05,5262517.8,0,31384,2,2,2,11565,11822,17219,11632
460685.2,5262518.29,0,31365,2,2,2,12593,12850,18761,9152
460685.46,5262519.1,0,31512,1,1,2,19532,19275,22873,9055
460685.61,5262519.55,0,31600,1,1,2,29041,25186,25957,13479
460685.87,5262520.37,0,28445,4,4,2,12079,13621,18761,10297
460686.17,5262521.33,0,30467,3,3,2,19789,20046,23130,12159
460686.32,5262521.8,0,28347,2,2,2,17990,17476,20817,15059
460686.94,5262523.71,0,28144,2,2,2,16448,16705,20560,15430
460687.14,5262524.34,0.23,28943,3,3,0,14906,15163,19532,12743
460687.57,5262525.68,0,29575,4,4,0,10537,11822,16962,14196
460678.22,5262495.73,0.77,31361,1,1,0,36494,31097,25957,0
460678.32,5262496.06,0.55,31296,1,1,0,39321,33924,29555,0
460678.44,5262496.43,0.38,31745,1,1,0,33924,31611,29298,0
460678.69,5262497.19,0.54,31296,1,1,0,16448,15934,19532,14781
460678.79,5262497.52,0.32,31391,1,1,0,20046,19018,21588,15139
460679.26,5262499,2.95,29330,1,2,0,21331,19532,21074,15947
460678.89,5262497.83,0.44,30096,2,2,0,21331,19789,21331,18543
460679.71,5262500.41,4.7,28592,2,2,0,26471,25186,23644,25386
460679.86,5262500.88,5.92,29634,1,2,0,26985,25957,24415,24296
460679.93,5262501.1,5.48,30178,1,2,0,23901,22616,21588,29498
460679.96,5262501.2,4.76,27868,2,3,0,26214,24929,24158,28523
460679.92,5262501.08,4.53,27839,3,3,0,26471,25186,24415,28603
460679.37,5262499.31,0,28547,2,2,2,23644,22359,21588,32411
460684.21,5262514.66,32.51,30280,1,2,0,28013,26728,25700,30683
460679.56,5262499.92,0.26,30064,2,2,0,26471,24415,24415,28567
460684.3,5262514.94,32.23,29664,1,2,0,29812,26471,25186,28105
460679.67,5262500.26,0,30598,3,3,2,26471,25186,24158,27371
460679.98,5262501.24,2.19,28121,2,3,0,25957,24672,23644,27195
460680,5262501.28,1.33,29893,1,2,0,27756,27242,28013,26759
460680.13,5262501.69,1.19,30477,2,2,0,16448,15934,19275,22008
460685.15,5262517.6,33.95,30948,1,2,0,24158,23130,22873,30869
460684.92,5262516.89,32.61,28615,2,2,0,23644,22616,22359,30557
460685.01,5262517.15,32.19,28409,2,2,0,21331,20817,21588,32881
460685.25,5262517.93,33.67,30595,1,2,0,21845,21331,22102,32854
460685.54,5262518.82,33.64,30863,1,1,0,27499,25700,24415,34595
460685.83,5262519.73,34.81,30300,1,1,0,34181,32125,30326,31318
460685.96,5262520.14,34.8,30768,1,2,0,25700,24672,23901,34460
460685.28,5262517.99,30.31,28219,2,2,0,25957,25700,25186,34813
460686.08,5262520.51,34.66,30627,1,1,0,29298,28013,26471,31477
460685.57,5262518.91,30.43,29277,2,2,0,32382,30840,28784,31947
460686.14,5262520.7,34.2,30018,1,2,0,30069,28270,26728,32133
460685.68,5262519.23,30.16,28307,3,3,0,31097,29298,26728,32262
460685.92,5262520.01,31.86,28573,2,3,0,30326,28527,25957,32854
460681.82,5262507,4.07,29628,2,2,0,26214,25186,24672,33747
460686.36,5262521.4,33.81,30329,1,2,0,28270,26985,25443,31562
460681.68,5262506.54,2.04,28900,2,2,0,24415,24158,23644,30705
460686.49,5262521.8,33.64,30578,1,2,0,24158,23130,22359,29532
460686.67,5262522.36,33.19,27904,1,4,0,19018,20046,21074,16208
460681.73,5262506.71,0.59,29225,4,4,0,24672,22616,23901,30164
460686.1,5262520.56,29.56,28635,3,4,0,23644,24158,24158,16828
460686.44,5262521.63,31.57,28261,2,4,0,20046,21074,21588,16509
460686.79,5262522.74,33.25,29179,1,3,0,16705,17733,20046,14485
460686.52,5262521.88,30.44,28556,1,2,0,14135,14906,18761,14892
460682.07,5262507.75,0,29195,2,2,2,11051,12079,16448,12090
460686.24,5262520.97,27.62,30162,1,2,0,13878,15163,18761,15616
460686.39,5262521.45,27.65,28311,2,3,0,13621,13878,18247,17251
460687.1,5262523.68,32.56,28904,1,3,0,13878,14135,18504,21401
460686.07,5262520.44,25.71,29336,3,3,0,13364,13621,18504,15972
460687.69,5262525.55,35.02,29202,1,2,0,16962,16962,17476,25445
460687.34,5262524.45,32.85,30090,2,2,0,17733,17733,18247,26177
460687.45,5262524.78,32.67,28301,2,2,0,21588,21074,21331,20624
460687.87,5262526.12,34.49,30047,1,2,0,14392,14392,16448,16211
460687.99,5262526.5,34.4,30116,1,3,0,18761,18761,21845,17601
460687.67,5262525.47,32.38,27665,2,3,0,19532,19532,22616,17481
460688.1,5262526.83,34.25,29448,1,2,0,19532,19532,21588,17251
460687.83,5262525.97,32.55,29897,2,2,0,19532,19532,21845,17737
460686.5,5262521.76,23.17,29648,2,3,0,18247,17733,20560,17808
460683.16,5262511.17,0.26,30513,2,2,0,21588,21074,22102,18012
460686.86,5262522.89,25,28723,1,2,0,17733,17733,22616,15322
460686.89,5262522.98,24.37,28216,1,2,0,14392,15163,20046,12659
460686.46,5262521.63,20.31,29212,3,4,0,13107,13878,18761,12322
460683.41,5262511.94,0.08,29474,4,4,0,13621,13878,18504,12199
460687.01,5262523.36,24.25,29736,1,4,0,13364,13878,19018,12221
460686.57,5262521.96,20.3,27894,2,3,0,13364,13878,19275,10899
460687.03,5262523.4,23.51,29267,1,3,0,12593,13107,18504,10469
460687.15,5262523.8,23.52,28356,1,3,0,16705,17476,22359,12006
460686.86,5262522.87,20.7,30339,1,2,0,16705,16448,20046,13267
460683.77,5262513.08,0.18,29877,2,2,0,13364,14135,18504,14503
460687.36,5262524.43,22.59,28435,1,3,0,17733,17219,20817,14379
460684.15,5262514.26,1.87,31450,3,3,0,14392,14906,18761,13355
460686.95,5262523.16,20.35,29235,2,3,0,15677,15163,18761,13956
460687.11,5262523.64,20.53,28399,2,3,0,16962,16705,21074,13824
460687.45,5262524.72,22.35,28655,1,3,0,17219,16962,21074,13688
460684.12,5262514.17,0,29274,3,3,2,16448,16962,20817,14920
460687.2,5262523.91,20.1,29474,2,3,0,15420,15934,20046,14056
460687.52,5262524.94,21.95,29903,1,3,0,15420,15934,19532,14204
460687.36,5262524.42,20.07,29897,2,3,0,18761,18504,22102,16899
460684.26,5262514.58,0,29736,3,3,2,20046,18761,20560,16627
460684.45,5262515.18,0.34,29274,2,2,0,21845,19789,20046,15342
460684.86,5262516.48,1.19,31725,1,1,0,17219,16962,21588,9472
460685.09,5262517.19,1.73,30355,1,2,0,17476,16705,20303,10743
460684.94,5262516.74,0,31312,1,1,2,21845,21331,24672,10667
460685.13,5262517.33,0.19,31571,1,1,0,13878,14649,19018,9775
460685.56,5262518.67,0,31401,2,2,2,14392,14392,20046,8424
460685.69,5262519.07,0,31296,2,2,2,16705,16191,19789,11557
460685.82,5262519.47,0,31594,1,1,2,26471,23130,24929,17084
460685.95,5262519.88,0,31050,2,2,2,25186,23387,25957,20424
460686.21,5262520.68,0,30706,2,2,2,11565,12079,18247,8918
460686.37,5262521.19,0,28360,3,3,2,23901,23644,25957,11891
460686.8,5262522.53,0.99,29579,3,4,0,16191,16448,20817,13514
460686.64,5262522.04,0,28792,4,4,2,16705,16705,21331,14072
460686.9,5262522.87,1.14,29680,3,3,0,11051,12593,16705,17742
460687.04,5262523.3,1.18,28950,3,3,0,12593,13107,16962,18878
460687.01,5262523.2,0,29281,4,4,2,17219,17219,19532,19800
460687.29,5262524.08,0,29756,2,2,2,16191,16448,20560,13570
460687.48,5262524.66,0,28596,3,3,2,16448,16705,21331,12491
460687.88,5262525.91,0.74,28320,4,4,0,11308,12079,16962,14007
460688.58,5262528.1,0.19,29883,4,4,0,35209,34438,31354,32781
460678.65,5262496.34,0.45,31456,1,1,0,28527,24672,23130,0
460678.81,5262496.83,0.7,31437,1,1,0,17476,16962,19532,0
460678.86,5262496.99,0.27,31718,1,1,0,14392,14135,17733,0
460679.03,5262497.52,0.31,31220,1,1,0,19789,19275,22359,16279
460679.47,5262498.89,2.83,30516,2,3,0,24158,22873,24672,23693
460679.12,5262497.81,0.49,28861,3,3,0,23644,22102,24415,25513
460680.05,5262500.73,6.6,28373,1,3,0,22102,20560,22102,18181
460679.19,5262498.02,0,29058,3,3,2,24158,22102,21588,30782
460679.59,5262499.29,2.7,28828,2,3,0,26471,24415,23644,30625
460684.17,5262513.78,32.39,28959,1,2,0,20046,18504,19018,18243
460684.04,5262513.37,30.73,28117,2,2,0,25957,24415,24158,31270
460684.31,5262514.22,32.56,30349,1,2,0,25186,23644,23130,30853
460684.51,5262514.85,32.75,30637,1,1,0,26728,25443,24415,30127
460684.63,5262515.21,32.87,30912,1,1,0,30326,27499,26728,28038
460684.68,5262515.37,32.38,30201,1,3,0,29555,27242,26471,21586
460684.82,5262515.82,32.25,29235,1,2,0,30583,28784,27242,20439
460680.07,5262500.77,0.49,30287,2,2,0,24929,24158,24158,27137
460685,5262516.37,32.56,28278,2,3,0,28013,26214,25957,26631
460685.22,5262517.09,33.73,29720,1,3,0,29041,26985,26471,25398
460685.35,5262517.47,32.77,30437,1,1,0,19018,18761,19532,29441
460685.62,5262518.34,33.69,29274,1,2,0,21845,20817,22359,32289
460685.41,5262517.66,32.42,29494,2,2,0,21074,20560,21845,32117
460686.2,5262520.16,34.81,31047,1,1,0,24415,24415,24415,34058
460685.79,5262518.84,30.36,28740,2,3,0,31354,29555,26728,33373
460685.22,5262517.02,26.65,28799,3,3,0,34438,32639,30326,33544
460681.38,5262504.85,0.17,28212,3,3,0,26214,25700,26214,33422
460681.78,5262506.11,3.02,28563,2,3,0,26471,25443,25700,33651
460686.45,5262520.93,33.71,29281,1,3,0,32639,30840,28270,31776
460686.61,5262521.43,33.89,29595,1,3,0,26471,25186,23901,29682
460681.83,5262506.28,2.45,30083,3,3,0,25186,24929,24415,31785
460685.71,5262518.58,28.01,28877,2,3,0,29812,28527,27499,29963
460686.74,5262521.83,33.82,30604,1,1,0,26985,26471,25186,29706
460686.81,5262522.05,33.43,30365,1,1,0,27499,27242,25957,26625
460686.55,5262521.2,30.81,28311,2,3,0,28013,27756,26985,19760
460681.9,5262506.5,0.47,28701,3,3,0,20303,19789,21074,27379
460687.05,5262522.81,33.57,30726,1,2,0,24672,25443,25443,17641
460686.62,5262521.43,30.49,28723,2,2,0,24672,25186,24672,24585
460686.73,5262521.78,30.33,29595,1,3,0,13364,14135,16191,16814
460686.14,5262519.91,26.48,29608,2,3,0,15934,16705,18247,16358
460682.15,5262507.25,0.21,29189,3,3,0,27242,27756,26471,27594
460687.34,5262523.69,32.75,30306,1,1,0,13364,14135,19018,15842
460686.31,5262520.44,24.97,28212,2,2,0,14392,14906,18247,24363
460687.85,5262525.32,34.9,30745,1,2,0,19789,20046,21845,22492
460688,5262525.78,35.01,30647,1,1,0,24672,24415,23901,22411
460686.35,5262520.55,22.8,28271,2,2,0,16705,17476,20046,22164
460688.18,5262526.35,34.45,30250,1,2,0,21588,21588,21845,18928
460688.28,5262526.65,34.18,29202,1,1,0,19018,19275,21331,20607
460688.12,5262526.12,32.21,30188,1,3,0,17219,16705,19532,18878
460683.24,5262510.68,0.43,28176,3,3,0,25957,24415,24929,23484
460686.66,5262521.5,22.92,29310,2,3,0,16448,16191,17990,18423
460686.96,5262522.46,24.08,29140,1,2,0,18247,17990,22616,15542
460683.36,5262511.03,0.27,30647,2,2,0,22616,21845,21074,21180
460683.48,5262511.41,0.2,29805,3,3,0,24672,24415,25957,17921
460686.59,5262521.27,20.72,29415,2,3,0,14392,15163,19789,11785
460686.97,5262522.47,22.44,29186,1,3,0,13621,15163,18761,13044
460687.23,5262523.3,23.41,29913,1,3,0,14906,15677,20560,11771
460686.83,5262522.02,20.61,28750,2,3,0,14649,15420,20303,11962
460686.92,5262522.3,20.34,28819,2,3,0,14649,15420,19789,12971
460687.09,5262522.84,20.8,30119,2,3,0,15420,15163,18761,13715
460687.49,5262524.11,23.3,29648,1,3,0,16448,16191,19789,13528
460686.96,5262522.41,18.79,29140,2,4,0,15934,16448,20303,13466
460687.21,5262523.19,20.61,28864,1,4,0,15677,15934,19789,13310
460684.12,5262513.43,0.18,29074,4,4,0,13621,13878,18504,14020
460684.34,5262514.12,1.86,28668,3,4,0,13364,13621,18247,13756
460684.31,5262514,0.79,28841,3,3,0,20560,21074,24415,16662
460687.08,5262522.78,18.97,28465,2,3,0,15934,16448,19789,14081
460684.49,5262514.58,1.06,29448,3,3,0,14906,15420,18761,14594
460687.22,5262523.24,18.96,27586,2,3,0,15420,15934,19789,14675
460687.8,5262525.05,21.42,29684,1,3,0,15934,16705,20046,18846
460684.55,5262514.77,0.27,29317,3,3,0,20046,18247,20303,17406
460687.58,5262524.36,20.05,29127,2,3,0,15420,16191,19532,19093
460687.67,5262524.65,19.75,29271,1,2,0,18761,17990,19789,14849
460684.97,5262516.06,1.34,31535,1,1,0,42919,38036,35980,19781
460685.27,5262517,0.33,31817,1,1,0,20303,19789,21074,11035
460685.47,5262517.64,0,31525,1,1,2,10023,11051,17476,8186
460685.78,5262518.6,0.07,31541,1,1,0,12079,12336,17219,9067
460686.32,5262520.28,0,31689,1,1,2,13621,14649,19532,8025
460686.72,5262521.54,0,28517,2,2,2,25957,24158,27242,12559
460686.98,5262522.37,0.94,30139,2,2,0,16962,16448,21074,14593
460687.11,5262522.77,1.05,30837,1,1,0,11565,12336,17219,16836
460687.23,5262523.13,0,30110,2,2,2,22616,22616,25186,16081
460687.38,5262523.59,0,29756,4,4,2,17733,17990,21331,13620
460688.56,5262527.36,7.29,28550,3,4,0,19275,19275,22359,13592
460688.69,5262527.73,6.89,28022,3,4,0,16191,16448,20817,13505
460687.68,5262524.55,0.78,28524,4,4,0,14906,15163,19789,12611
460687.71,5262524.64,0.01,29703,4,4,0,12079,12336,17476,10707
460688.3,5262526.47,0.09,28373,3,3,0,14906,15163,20046,12319
460678.77,5262495.82,0.8,31378,1,1,0,39578,33924,28270,0
460678.97,5262496.46,1.18,30536,1,2,0,37265,32382,29555,0
460678.83,5262496,0.28,29526,2,2,0,38036,32896,30326,0
460679.05,5262496.69,0,31456,1,1,2,14906,14906,18504,0
460679.18,5262497.09,0,31735,1,1,2,17219,16705,20303,14307
460679.5,5262498.1,0.45,29018,3,3,0,21331,19789,22359,27069
460679.8,5262499.03,2.29,29707,2,3,0,21074,19532,22102,27339
460680.32,5262500.7,6.02,28914,1,3,0,21845,20303,22359,29052
460680.32,5262500.67,5.03,30398,1,3,0,23130,21074,21331,29888
460679.82,5262499.11,1.5,28507,2,3,0,21845,20303,20817,29632
460684.51,5262513.94,32.25,30686,1,1,0,25186,23644,23387,28369
460684.84,5262514.99,32.74,30726,1,2,0,27499,26214,25443,31689
460684.57,5262514.14,31.25,28488,2,2,0,26985,25700,24929,31998
460680.09,5262499.93,0,28452,2,2,2,28013,25700,25957,33387
460680.28,5262500.55,0.44,29900,2,2,0,29555,28013,27242,30981
460685.03,5262515.57,32.15,29942,1,2,0,28013,26471,24929,27725
460684.93,5262515.26,30.63,29330,1,2,0,27242,25957,25443,22803
460685.32,5262516.49,32.49,29159,2,2,0,20303,19532,21331,28320
460685.61,5262517.4,33.2,30617,1,1,0,22359,22616,23130,26401
460686.03,5262518.71,33.93,30595,1,1,0,29041,27756,26728,32828
460686.24,5262519.38,34.45,30942,1,1,0,25186,23901,22873,34668
460686.37,5262519.8,34.5,30696,1,1,0,25700,24672,24158,33252
460686.52,5262520.25,34.44,30627,1,1,0,27499,25443,24672,33380
460682.13,5262506.35,4.61,28877,2,2,0,24672,23901,23644,31228
460686.76,5262520.99,34.45,30542,1,1,0,34695,32896,30326,33972
460682.08,5262506.17,2.59,29018,2,2,0,22873,21845,22359,29855
460686.97,5262521.66,34.16,30316,1,3,0,28527,27499,26471,29694
460682.07,5262506.14,1.63,28733,2,3,0,25700,24158,24158,30641
460681.81,5262505.31,0.37,29117,3,3,0,25700,24672,24415,30446
460687.16,5262522.26,33.58,30847,1,1,0,25700,25443,24158,30684
460686.97,5262521.63,30.78,29287,2,3,0,24158,24158,23387,22469
460686.4,5262519.84,27.1,27950,3,3,0,24415,24672,23387,21939
460687.37,5262522.91,33.5,30005,1,3,0,22873,22873,22359,25519
460687.39,5262522.94,32.63,28222,1,4,0,17219,17733,20046,16011
460682.43,5262507.24,0,28399,4,4,2,22873,24158,25957,25195
460687.07,5262521.93,30.27,29068,2,4,0,17476,18247,20303,15842
460686.44,5262519.93,26.25,28311,3,4,0,17219,17733,19532,16444
460685.74,5262517.73,20.91,29762,1,2,0,11822,13107,18247,12785
460682.63,5262507.86,0.11,29490,2,2,0,10280,11308,15934,12814
460687.62,5262523.69,32.58,28917,1,2,0,12336,13107,17990,16977
460682.8,5262508.39,0.3,30136,2,2,0,14649,15163,19018,15574
460686.5,5262520.11,24.04,29094,1,1,0,12079,12593,16191,17413
460687.88,5262524.49,32.31,28284,1,1,0,23901,24158,25186,25538
460688.41,5262526.17,34.67,30408,1,1,0,21074,21074,22359,20599
460687.11,5262522.04,25.44,28255,2,2,0,14392,15420,19018,16468
460688.16,5262525.35,32.22,28999,1,2,0,16191,16962,19532,20628
460687.26,5262522.5,25.47,29041,1,1,0,13107,13621,17476,16107
460688.38,5262526.03,31.83,29536,1,3,0,20046,19532,22359,16255
460686.71,5262520.76,21.14,28507,2,3,0,23130,22102,23644,16526
460683.52,5262510.66,0.19,29507,3,3,0,21588,21331,23644,20553
460686.84,5262521.17,21.1,28841,1,2,0,18761,18247,20303,14023
460687.16,5262522.18,22.28,29058,2,4,0,15420,15934,19275,13333
460687.42,5262523,24.19,29638,1,4,0,15163,15677,19275,13045
460683.93,5262511.93,0,30942,2,2,2,13621,14392,18761,11304
460687.56,5262523.43,23.33,29418,1,3,0,15934,16705,21074,14078
460687.19,5262522.24,20.53,29739,2,3,0,15934,16705,21588,14114
460684.07,5262512.36,0.06,29959,3,3,0,14135,14392,19789,12991
460687.73,5262523.95,23.49,30506,1,2,0,12336,13107,17476,14149
460684.35,5262513.23,0.3,28701,3,3,0,12336,12593,17990,13478
460687.8,5262524.17,23.05,29962,1,3,0,14135,14649,18761,12865
460687.38,5262522.83,20.23,28294,2,3,0,13107,13878,17990,13644
460687.32,5262522.63,18.94,28278,2,3,0,16962,17476,21331,13582
460687.56,5262523.4,20.61,28438,1,3,0,15420,15934,19532,13566
460687.08,5262521.87,16.23,28153,3,4,0,14392,14906,18247,14185
460684.75,5262514.5,1.24,30024,4,4,0,17990,18504,21845,15808
460687.69,5262523.81,20.64,29320,1,4,0,14906,15420,18761,13307
460687.42,5262522.96,18.75,28353,2,4,0,14649,15163,18504,13677
460687.17,5262522.16,16.02,28468,2,3,0,16448,16962,20817,15148
460684.84,5262514.79,0.92,28995,3,3,0,16191,16705,20046,15736
460688.04,5262524.9,21.72,30103,1,3,0,14649,15163,19018,15501
460684.99,5262515.26,0.99,29749,3,4,0,18761,18504,22873,16938
460687.84,5262524.27,19.63,28638,1,4,0,20817,20046,22359,18405
460687.32,5262522.63,16.39,29333,2,4,0,22359,21331,23130,17003
460684.84,5262514.76,0,28461,4,4,2,17733,17733,22359,16619
460685.15,5262515.76,0.79,31286,2,2,0,26728,24672,24672,20154
460685.31,5262516.24,1.4,31656,1,1,0,26214,24929,26985,17416
460685.48,5262516.77,0.51,31584,1,1,0,22102,22616,26214,10763
460685.59,5262517.1,0.27,31571,1,1,0,11565,12336,16962,10364
460685.83,5262517.87,0,32285,1,1,2,17990,18247,23644,8312
460685.95,5262518.25,0,31535,1,1,2,12593,12850,17476,8708
460686.11,5262518.73,0,31555,1,1,2,14392,14906,18761,9261
460686.22,5262519.1,0,31709,1,1,2,15677,15163,19275,11400
460686.37,5262519.57,0,31666,1,1,2,40606,39064,40863,11299
460686.79,5262520.88,0,31863,1,1,2,26471,23644,26728,11153
460687.2,5262522.15,0.74,30175,2,2,0,11308,12850,15934,16012
460687.33,5262522.57,1,30827,2,2,0,13364,14135,19018,16585
460688.64,5262526.69,8.06,28445,3,4,0,12593,13364,17733,16553
460688.73,5262526.99,7.96,28363,2,3,0,29298,29812,32639,18556
460687.59,5262523.36,0,29838,3,3,2,15677,16191,19532,17132
460688.88,5262527.44,7.13,28209,3,3,0,17476,17990,21845,13627
460689.11,5262528.15,7.28,28615,3,4,0,12079,12850,17733,11237
460688.07,5262524.87,0.14,28383,4,4,0,12079,13364,18504,13807
460679.11,5262495.76,0.7,31191,1,1,0,34181,28527,25957,0
460679.16,5262495.9,0.16,31597,1,1,0,31611,26471,23130,0
460679.41,5262496.68,1.16,30699,1,1,0,21845,19018,20046,0
460679.49,5262496.94,0.82,31640,1,1,0,21331,20303,20817,0
460679.51,5262496.98,0,31397,1,1,2,21331,19532,19275,11888
460679.84,5262498.02,0.49,31614,1,1,0,18247,17476,20046,19632
460680.53,5262500.2,4.33,27858,1,2,0,19532,18247,19275,24412
460679.94,5262498.33,0.19,30490,2,2,0,25443,23130,21588,21511
460680.66,5262500.62,4.21,29579,2,3,0,22102,20560,20560,29343
460680.06,5262498.7,0,28982,3,3,2,23901,22359,22359,27332
460684.85,5262513.88,32.3,29261,1,3,0,26471,25186,24158,27980
460685.06,5262514.53,32.81,30598,1,1,0,24672,23387,22616,31043
460685.17,5262514.88,32.6,30309,1,1,0,25700,24415,23644,31144
460685.23,5262515.08,32.09,28999,1,3,0,25957,24672,23901,30222
460685.08,5262514.59,31.14,29107,2,3,0,26214,24929,24158,29469
460680.52,5262500.14,0.56,29494,3,3,0,23901,22873,23130,30068
460680.57,5262500.29,0,29061,2,2,2,24158,23130,22616,30188
460685.28,5262515.23,30.73,29176,2,2,0,23644,22873,24415,25692
460685.54,5262516.02,31.98,28923,1,2,0,24672,24158,25443,25637
460685.66,5262516.42,32.16,29893,1,1,0,16448,15934,19018,23827
460685.93,5262517.26,33.23,30542,1,1,0,19018,19018,20817,29058
460685.95,5262517.31,32.51,30683,1,1,0,23644,23901,25186,26348
460686.07,5262517.68,32.26,29520,2,2,0,15163,13878,14392,33446
460686.36,5262518.62,34.19,29893,1,2,0,15677,14649,14906,33493
460686.55,5262519.21,34.47,31184,1,1,0,23901,23387,22873,33612
460686.2,5262518.08,31.5,28743,2,2,0,23387,23130,22102,31849
460686.63,5262519.47,34.22,29893,1,2,0,22873,22616,21588,31616
460686.82,5262520.05,34.5,30673,1,1,0,25957,25700,24672,33263
460686.63,5262519.44,32.49,28563,2,2,0,24672,23387,22616,33744
460687.04,5262520.73,34.2,30182,1,2,0,28527,27242,25957,32943
460687.19,5262521.21,34.25,31073,1,1,0,26471,25443,24672,35049
460687.29,5262521.53,34.07,30991,1,1,0,25957,24929,24158,32871
460687.39,5262521.83,33.85,30637,1,3,0,25443,24672,23901,34226
460687.18,5262521.17,32.54,28101,2,3,0,24929,24415,23901,34397
460682.27,5262505.61,0.04,27888,3,3,0,22359,22359,22616,27032
460687.03,5262520.7,30.75,28514,3,3,0,23644,22616,22873,32697
460687.15,5262521.07,31.52,28635,2,3,0,23901,22873,23130,32854
460687.56,5262522.35,33.25,30234,1,1,0,26728,24415,25186,32867
460687.35,5262521.68,30.99,28045,2,2,0,23387,22359,23130,29324
460687.61,5262522.51,32.71,29982,1,2,0,22873,22102,21845,28384
460687.69,5262522.76,32.57,28959,1,2,0,25443,25443,24929,18937
460687.46,5262522.03,30.86,29988,2,2,0,26214,26214,25443,19633
460686.89,5262520.23,26.35,28455,1,3,0,11565,13364,16191,13172
460682.92,5262507.63,0,28540,3,3,2,12336,12850,18247,13340
460683.17,5262508.42,0.75,30126,2,2,0,18247,18761,21845,16647
460686.98,5262520.49,26.04,29582,1,2,0,13107,13621,19018,11359
460686.82,5262519.98,24.06,30083,2,2,0,14392,14649,19789,13327
460687.08,5262520.82,25.76,29146,1,2,0,13364,13621,18504,12944
460686.93,5262520.33,23.91,29074,1,3,0,14135,14392,19532,13646
460686.81,5262519.95,23.13,28042,2,3,0,14392,14649,19789,14150
460683.33,5262508.92,0,28897,3,3,2,17219,17733,21588,11960
460687.43,5262521.89,26.14,27750,2,2,0,12850,13878,19018,15238
460688.43,5262525.08,32.77,30483,1,2,0,12336,13107,17733,17381
460686.91,5262520.24,21.87,28294,3,3,0,18504,18504,20560,17054
460683.75,5262510.24,0.1,29471,3,3,0,21845,21074,23387,16420
460686.98,5262520.47,21.54,29910,2,3,0,25443,24158,24672,19372
460688.59,5262525.58,32.02,28936,1,3,0,14649,14649,17476,15367
460687.09,5262520.81,21.29,28566,3,3,0,24672,23130,23130,21593
460687.49,5262522.08,23.95,29756,2,3,0,26471,24929,25186,20067
460688.71,5262525.94,31.64,29143,1,3,0,23387,22359,23644,17487
460687.61,5262522.44,23.82,30342,1,2,0,25443,24929,24415,17231
460683.98,5262510.94,0,29464,2,2,2,23130,22616,23387,15549
460687.67,5262522.62,23.59,29372,1,3,0,21074,20817,23387,15475
460687.29,5262521.42,20.88,28278,2,3,0,22102,21845,24415,14939
460684.13,5262511.4,0.2,30673,3,3,0,18504,18247,21845,13160
460684.23,5262511.73,0,31289,2,2,2,14392,15420,20046,12214
460687.31,5262521.5,20.2,29998,1,2,0,12593,13107,16962,11829
460684.37,5262512.18,0,30087,2,2,2,13878,14135,19275,13412
460687.49,5262522.06,19.57,28432,2,3,0,14135,14649,20046,13291
460688.03,5262523.75,23.15,30509,1,3,0,12850,13621,18761,13921
460684.5,5262512.56,0,29457,3,3,2,12850,13107,18504,12395
460688.15,5262524.12,22.98,30031,1,3,0,13107,13878,18761,15015
460687.58,5262522.31,19.15,27662,2,3,0,12593,12850,17990,14047
460684.64,5262513,0,29385,3,3,2,12336,12593,17733,11377
460687.32,5262521.5,16.58,27239,3,4,0,15420,15677,20303,14989
460688.19,5262524.25,22.38,29572,1,4,0,17476,17990,22102,13550
460687.55,5262522.23,18.12,28137,2,4,0,15677,15934,20303,14532
460687.73,5262522.79,18.69,30136,1,3,0,16191,16705,20046,16242
460687.46,5262521.92,16.67,29454,2,3,0,16962,17476,20817,16322
460685.12,5262514.5,1.5,28730,3,3,0,14649,15163,18504,15537
460687.86,5262523.19,18.52,30070,1,3,0,16191,16705,20303,15160
460685.15,5262514.62,0.8,29553,3,3,0,16191,16705,20560,15388
460687.61,5262522.4,15.87,29051,2,3,0,20303,18761,22102,17816
460685.33,5262515.19,1.06,29785,3,3,0,14906,15420,19275,13848
460688.16,5262524.14,19.57,29687,1,3,0,20303,18504,21074,16689
460685.48,5262515.65,0.85,30637,2,2,0,20817,20560,23130,18240
460685.62,5262516.09,0.79,31302,1,1,0,19532,19532,22873,14624
460685.79,5262516.6,0.29,31394,1,1,0,10794,11051,17219,11376
460686,5262517.25,0,31607,1,1,2,12850,12850,16962,8408
460686.29,5262518.18,0,31637,1,1,2,17733,17476,22102,8950
460686.72,5262519.52,0,31371,1,1,2,33924,31097,29812,21620
460686.88,5262520.02,0.08,31764,1,1,0,29041,27499,29041,12922
460687,5262520.39,0,31673,1,1,2,26214,22102,24672,12364
460687.14,5262520.82,0,31846,1,1,2,30840,28013,29041,14928
460687.43,5262521.72,0,31034,2,2,2,13621,14649,17990,17147
460687.68,5262522.52,1.1,28841,3,4,0,12593,13878,18761,16892
460689.12,5262527.06,8.37,28294,3,3,0,13621,14649,17990,19680
460688.23,5262524.23,0.03,29798,3,3,0,11308,12593,17733,12404
460689.48,5262528.17,7.54,28137,3,4,0,11308,12593,18247,13265
460689.55,5262528.41,7.08,27714,3,4,0,13107,13878,18761,16569
460688.56,5262525.26,0.19,28363,4,4,0,12593,13621,18504,15201
460688.73,5262525.8,0.13,30542,3,3,0,16191,15934,20817,15651
460689.64,5262528.67,4.72,27999,2,2,0,13364,12850,16448,16603
460689.19,5262527.22,0.42,29143,3,3,0,29298,28784,29041,26934
460679.33,5262495.49,0.73,31152,1,1,0,34181,29555,28270,0
460679.36,5262495.57,0,31473,1,1,2,25700,20817,19532,0
460679.64,5262496.43,1.17,31116,1,1,0,35980,31354,28784,0
460679.78,5262496.88,1.11,30998,1,1,0,35466,32896,30326,0
460679.87,5262497.17,0.89,31004,1,1,0,29555,26214,24158,0
460679.93,5262497.33,0.22,31142,1,1,0,25443,22616,20303,12932
460680.1,5262497.86,0.49,31368,1,1,0,21074,19789,19789,13922
460680.21,5262498.22,0.34,30142,2,2,0,28527,26728,26728,19760
460680.36,5262498.69,1.37,30680,1,2,0,30583,28527,28270,19128
460680.41,5262498.85,0.84,29104,3,3,0,25700,24929,23901,27511
460680.94,5262500.52,4.57,29405,1,3,0,29041,28270,26985,25014
460680.65,5262499.6,2.74,28753,2,3,0,29041,28270,26985,26495
460685.37,5262514.55,32.67,30526,1,2,0,26214,24672,24672,30557
460685.13,5262513.78,31.02,28524,2,2,0,26728,25186,25186,29799
460685.45,5262514.77,31.33,29765,2,2,0,26728,24929,23901,26821
460685.66,5262515.46,32.38,29408,1,2,0,26214,24415,23644,26179
460685.55,5262515.09,31.15,29949,1,2,0,28013,27242,25957,27206
460685.24,5262514.12,29.27,28501,2,2,0,28270,27499,26214,27865
460685.67,5262515.48,30.77,30011,1,3,0,16448,16191,19532,21677
460681.25,5262501.46,1.27,28684,3,3,0,25700,25443,25443,25091
460685.34,5262514.44,29.04,29087,2,3,0,17219,16962,20046,21307
460685.76,5262515.74,30.44,30123,2,2,0,15677,15420,18761,23367
460686.06,5262516.69,32.53,28858,1,2,0,16191,16191,19275,23871
460685.87,5262516.08,30.24,28838,2,2,0,17733,17990,19018,27431
460686.25,5262517.3,32.11,30041,1,1,0,19532,19532,21588,22767
460686.25,5262517.3,31.27,28802,3,3,0,16962,16705,19018,28250
460686.66,5262518.6,33.86,29726,1,3,0,17733,16962,19018,30900
460686.38,5262517.69,32.01,28301,2,3,0,16962,16705,18761,29061
460686.84,5262519.14,34.08,30788,1,1,0,21074,20817,21588,31829
460686.76,5262518.89,32.8,28284,2,2,0,20817,20560,20046,31065
460687.02,5262519.72,34.48,30680,1,2,0,22616,22359,21588,30978
460687.15,5262520.14,34.32,30709,1,1,0,25957,24929,24672,31169
460686.93,5262519.43,32.09,27924,1,1,0,26471,25443,25186,32451
460687.09,5262519.9,32.16,28445,1,1,0,25957,24929,24672,32364
460686.97,5262519.52,29.7,28661,2,2,0,25443,24929,24415,30688
460687.61,5262521.54,33.96,30401,1,2,0,25186,24929,24415,33308
460687.15,5262520.1,29.98,28324,2,3,0,25957,24929,25443,25614
460687.01,5262519.64,29.14,29618,3,3,0,26471,25443,25700,25202
460687.68,5262521.76,33.47,29225,1,3,0,25186,24158,24415,28967
460682.76,5262506.19,0,29710,2,2,2,22102,21845,23387,27402
460687.29,5262520.52,30.02,28645,1,2,0,21588,20817,22873,31043
460687.59,5262521.48,31.15,29510,2,2,0,20560,20046,21331,28921
460686.31,5262517.4,21.04,28792,2,3,0,15934,17733,20560,23214
460683.28,5262507.82,0.88,29287,3,3,0,14649,15420,18761,14246
460688.04,5262522.88,32.43,29906,1,3,0,24415,25700,26471,17504
460686.44,5262517.8,21.08,28828,2,3,0,10794,11308,15420,13828
460686.88,5262519.2,23.72,28537,1,3,0,10537,11308,15934,12123
460683.51,5262508.52,0.49,28606,3,3,0,14906,15420,18761,17163
460687.34,5262520.67,25.93,28881,1,3,0,14135,14392,19018,13662
460686.99,5262519.53,23.5,29644,2,3,0,14392,14906,18761,14486
460687.21,5262520.22,24.09,29149,2,5,0,14135,14649,18504,15185
460687.07,5262519.8,23.26,27649,3,5,0,14392,14906,18761,15411
460686.39,5262517.65,18.92,27459,4,5,0,16705,17219,20560,15321
460687.13,5262519.96,22.77,30359,2,3,0,13107,13364,17733,14339
460688.66,5262524.81,32.86,28789,1,3,0,12850,13107,18504,13888
460683.69,5262509.08,0,29005,3,3,2,13364,13621,18247,11215
460688.73,5262525.05,32.42,30817,1,2,0,13878,14649,18504,15249
460683.85,5262509.59,0.08,28140,2,2,0,35209,34695,37522,15378
460688.85,5262525.4,32.01,30539,1,1,0,22873,22616,23901,15443
460688.97,5262525.8,31.92,30519,1,2,0,26985,25443,25443,18484
460687.77,5262521.99,23.44,29267,2,3,0,21331,21074,22359,21556
460689.07,5262526.09,31.54,28733,1,3,0,23130,21588,21588,18476
460684.21,5262510.72,0,28488,3,3,2,17476,16705,19532,19179
460689.09,5262526.16,30.84,29448,1,2,0,25700,25700,25700,17249
460684.35,5262511.14,0,29890,2,2,2,30069,28527,29812,18325
460687.65,5262521.57,20.89,29415,1,2,0,13878,14392,19018,12331
460684.73,5262512.33,0,29733,2,2,2,14135,14392,19275,13824
460687.79,5262522.03,20.09,28412,1,2,0,12079,12336,17733,12787
460687.85,5262522.2,19.57,30015,1,3,0,13621,13878,19275,13346
460684.87,5262512.76,0.02,29874,3,3,0,12336,12593,17733,12193
460688.43,5262524.04,22.59,28547,1,4,0,12593,12850,17990,14106
460687.88,5262522.28,18.87,29195,3,4,0,12593,12850,17990,14497
460685.02,5262513.24,0.34,29320,4,4,0,13621,13878,18247,12589
460688.2,5262523.3,21.13,29149,2,4,0,12336,12593,17990,14289
460687.83,5262522.11,17.61,28969,1,2,0,15163,15677,19789,16945
460687.65,5262521.57,16.52,28314,2,2,0,14906,15163,19532,17285
460688.07,5262522.89,18.5,29723,1,2,0,17990,18504,21845,16152
460687.78,5262521.97,16.41,29700,2,2,0,17990,18504,21845,16644
460685.59,5262515.01,1.27,29736,3,3,0,14649,15420,19532,13309
460687.87,5262522.25,16.12,29172,2,3,0,15934,16448,19789,16026
460688.15,5262523.13,18.12,29484,1,3,0,16448,16962,20303,15819
460685.71,5262515.4,0.86,31057,2,2,0,15163,15420,19789,15372
460685.86,5262515.85,0.82,31158,2,2,0,15163,15934,20303,15272
460685.88,5262515.92,0,31227,1,1,2,9509,11051,17476,10027
460686.03,5262516.38,0.15,31738,1,1,0,9766,10280,15934,7784
460686.25,5262517.08,0,31591,1,1,2,20046,19532,23130,8417
460686.4,5262517.53,0,31519,1,1,2,22616,22102,25700,10023
460686.82,5262518.85,0,31686,1,1,2,19532,17990,21588,13660
460686.96,5262519.29,0,31886,1,1,2,40349,38807,39835,21873
460687.12,5262519.8,0.1,31620,1,1,0,27756,26471,27242,15904
460687.24,5262520.16,0,31666,1,1,2,20560,19532,22616,14577
460687.37,5262520.57,0,31830,1,1,2,31868,30583,32125,18171
460687.78,5262521.86,0,30359,4,4,2,10794,12336,16962,15249
460688.86,5262525.28,6.97,29785,3,4,0,12336,13878,17990,15597
460689.35,5262526.81,8.28,27537,3,4,0,13364,14135,18761,16391
460688.04,5262522.67,0,27852,4,4,2,11822,13107,17990,15470
460688.21,5262523.18,0.11,29782,3,3,0,12336,13107,17990,14900
460688.35,5262523.62,0.06,29526,3,3,0,11822,13107,18247,14331
460689.82,5262528.27,6.87,28501,3,3,0,11565,13107,18247,14737
460689.06,5262525.86,0.09,30765,2,2,0,17733,17476,18761,19646
460689.22,5262526.35,0.03,28619,2,2,0,13107,13878,16191,15829
460689.37,5262526.83,0.37,29130,3,3,0,17733,17476,20817,15543
460689.47,5262527.13,0.12,28402,2,2,0,20046,19532,20817,23423
460690.18,5262529.36,0.76,28376,2,2,0,19789,19532,20560,20174
460690.2,5262529.41,0,27875,5,5,2,31354,30069,28527,27571
460690.34,5262529.86,0,28199,2,2,2,25957,24672,23130,29198
460690.59,5262530.64,0.15,29195,2,2,0,28013,27756,25957,25796
460690.74,5262531.1,0.09,29569,2,2,0,24672,24672,25957,20285
460691.13,5262532.3,0,28317,3,3,2,20046,18761,20303,9066
460679.74,5262495.8,1.04,28864,1,2,0,31611,26471,23644,0
460679.71,5262495.71,0.07,31361,1,1,0,42148,37008,30326,0
460679.95,5262496.46,0.9,31499,1,1,0,39321,33924,30326,0
460680.08,5262496.86,0.76,30706,1,1,0,32639,29298,26471,0
460680.14,5262497.06,0.33,31374,1,1,0,33153,29041,26985,0
460680.25,5262497.4,0.4,31093,1,1,0,33153,30583,28013,22054
460680.43,5262497.94,0,31247,1,1,2,20046,18761,20046,21621
460680.61,5262498.51,0.13,29988,2,2,0,22873,22359,22616,25481
460680.94,5262499.55,2.82,29975,1,2,0,23644,22873,22873,27288
460685.56,5262514.18,32.1,30424,1,2,0,24158,22616,23387,31814
460681.01,5262499.76,2.3,28127,2,2,0,22873,21588,22359,29644
460680.88,5262499.36,0,28763,2,2,0,31097,28784,26985,26439
460685.67,5262514.53,32.64,30132,1,2,0,26471,25186,24672,30321
460685.82,5262515.01,32.44,30450,1,1,0,26214,24415,25186,33439
460685.85,5262515.08,30.89,30149,1,1,0,28527,27499,26728,29710
460681.55,5262501.44,0.83,29107,2,2,0,25957,25700,24415,30837
460686.32,5262516.57,32.35,29140,1,3,0,19018,18761,21074,23397
460681.64,5262501.72,0.35,28409,3,3,0,24158,23387,23901,30992
460685.98,5262515.49,29.12,29569,2,2,0,17990,17733,19018,25609
460686.2,5262516.17,30.55,29500,1,2,0,18504,18247,19532,25579
460686.34,5262516.6,30.76,29349,1,3,0,17990,17990,20817,21629
460686.17,5262516.07,29.42,28665,2,3,0,17990,17990,20560,21680
460686.04,5262515.67,28.63,29805,3,3,0,17733,17733,20303,21707
460686.73,5262517.85,32.45,28959,2,3,0,15163,15163,18504,24390
460686.87,5262518.27,33.26,28655,1,3,0,15420,15163,18761,24666
460686.49,5262517.09,30.82,29700,3,3,0,15163,14906,18504,23800
460687.19,5262519.3,34.32,31030,1,1,0,23901,23901,25186,31479
460687.3,5262519.64,34.07,29883,1,2,0,21588,21588,21588,30532
460687.06,5262518.86,32.61,28320,2,2,0,21588,21588,21845,29870
460687.35,5262519.79,33.55,29965,1,1,0,20560,19789,20303,31871
460682.43,5262504.2,0.45,28809,2,2,0,26728,26214,26214,26653
460687.67,5262520.78,33.86,30401,1,1,0,23901,23387,23644,33059
460687.26,5262519.47,30.31,28383,2,2,0,24158,22873,22873,31062
460687.81,5262521.24,33.97,30316,1,2,0,24158,22616,22873,32431
460687.3,5262519.6,28.88,28841,1,3,0,24672,24672,24415,21985
460687.24,5262519.39,28.48,29231,2,3,0,24672,24672,24415,21617
460682.94,5262505.77,0,28599,3,3,2,20817,20303,22102,23114
460683.08,5262506.21,0.05,30647,2,2,0,23387,23130,22873,28248
460687.8,5262521.17,31.3,30021,1,2,0,19789,19532,20817,24377
460683.22,5262506.67,0.01,29068,2,2,0,23130,22873,22616,22293
460687.93,5262521.59,31.29,30804,1,2,0,16448,16191,17733,25762
460687.26,5262519.45,25.9,28750,2,2,0,19018,20046,22359,27719
460688,5262521.79,30.81,29923,1,2,0,21331,22359,23387,29866
460687.13,5262519.03,24.3,29166,2,4,0,11051,11822,16448,13935
460683.46,5262507.41,0,29906,4,4,2,16448,17476,20560,17252
460686.65,5262517.5,21.31,28435,3,4,0,11565,12336,16962,12600
460683.58,5262507.79,0,30935,1,1,2,17733,18247,21331,16457
